# .PCD v0.7 - Point Cloud Data file format
VERSION 0.7
FIELDS x y z
SIZE 4 4 4
TYPE F F F
COUNT 1 1 1
WIDTH 1517
HEIGHT 1
VIEWPOINT 0 0 0 1 0 0 0
POINTS 1517
DATA ascii
3.698163 0.21258782 -1.3482434
3.7062488 0.2026691 -1.3509796
3.7149198 0.24609394 -1.3550838
3.7062964 0.233831 -1.3516636
3.7014346 0.2770133 -1.3509796
3.709692 0.2672148 -1.3537157
3.6991742 0.25607803 -1.3496114
3.6885898 0.29677776 -1.3468753
3.7062681 0.2877844 -1.3530316
3.7007198 0.33158141 -1.3523476
3.6979983 0.31963062 -1.3509796
3.704495 0.30977309 -1.3530316
3.696939 0.35206714 -1.3516636
3.6955955 0.38451132 -1.3523476
3.6967199 0.37354523 -1.3523476
3.6885228 0.36101341 -1.3489275
3.6821809 0.40391621 -1.3482434
3.6981757 0.39587405 -1.3537157
3.6877711 0.43778306 -1.3516636
3.6984634 0.42727283 -1.3550838
3.6903043 0.41588959 -1.3516636
3.6869736 0.459892 -1.3523476
3.691802 0.48144576 -1.3550838
3.6914322 0.46960884 -1.3543998
3.6893213 0.51390493 -1.3557678
3.6796567 0.50143433 -1.3516636
3.6792142 0.54461151 -1.3537157
3.6826739 0.53396302 -1.3543998
3.6859198 0.52458364 -1.3550838
3.6795373 0.55516523 -1.3543998
3.6766081 0.59811723 -1.3557678
3.6819756 0.58843988 -1.3571359
3.6724646 0.57640773 -1.3530316
3.6767004 0.62054813 -1.3571359
3.6766715 0.60932809 -1.3564519
3.6601565 0.64999682 -1.3530316
3.6692507 0.64170802 -1.3557678
3.6692867 0.63049895 -1.3550838
3.6674433 0.67310125 -1.3571359
3.6804054 0.66486424 -1.3612401
3.6649973 0.70643163 -1.3585039
3.6706491 0.69689429 -1.359872
3.6616158 0.68393046 -1.3557678
3.6609945 0.72689021 -1.3585039
3.6705136 0.71746576 -1.3612401
3.6453116 0.75689977 -1.3550838
3.6571083 0.73673904 -1.35782
3.6447031 0.7780323 -1.3564519
3.6614401 0.77158529 -1.3619242
3.6411612 0.81189418 -1.35782
3.6473651 0.80125839 -1.3591881
3.6405425 0.78844279 -1.3557678
3.6510801 0.8362093 -1.3632923
3.6390231 0.82142341 -1.35782
3.6346538 0.86522645 -1.359872
3.6518414 0.85787749 -1.3653444
3.6322536 0.84257889 -1.3571359
3.6369131 0.88792956 -1.3626082
3.6302438 0.87556565 -1.3591881
3.6237204 0.91761756 -1.3605561
3.6279342 0.90858126 -1.3612401
3.6234722 0.8953765 -1.3585039
3.6216862 0.94067818 -1.3619242
3.630085 0.93069667 -1.3639764
3.6189535 0.97308207 -1.3639764
3.6200089 0.96185648 -1.3632923
3.6119394 0.94825053 -1.3591881
3.6114774 0.99340981 -1.3632923
3.6073256 0.98008883 -1.3605561
3.6010418 1.0237448 -1.3626082
3.5984585 1.0121605 -1.3605561
3.6175668 1.0066411 -1.3667126
3.6039264 1.0477211 -1.3660284
3.6072004 1.0363928 -1.3660284
3.5894339 1.0768832 -1.3639764
3.5940423 1.0680183 -1.3646604
3.5847583 1.0530115 -1.359872
3.5941458 1.1002146 -1.3680805
3.5936074 1.0890824 -1.3667126
3.5734584 1.1287644 -1.3639764
3.5927393 1.1238313 -1.3701327
3.5962524 1.1125377 -1.3701327
3.5808356 1.1427914 -1.3680805
3.558516 1.1810023 -1.3646604
3.5653708 1.1722351 -1.3660284
3.5817499 1.164472 -1.3708168
3.565897 1.2062966 -1.3701327
3.5730245 1.1969057 -1.3715007
3.5572262 1.2373638 -1.3708168
3.5608811 1.2268062 -1.3708168
3.562727 1.2156273 -1.3701327
3.558677 1.2615927 -1.3742369
3.5606318 1.2504047 -1.3735529
3.5532813 1.2932895 -1.376289
3.5533435 1.2820851 -1.3749208
3.5533707 1.2708921 -1.3735529
3.5406082 1.300586 -1.3728689
3.5412004 1.3472992 -1.3790252
3.5396738 1.3354137 -1.376973
3.5328279 1.3215737 -1.3728689
3.527885 1.3662535 -1.376973
3.533915 1.3558359 -1.3776572
3.5193214 1.3983756 -1.3783412
3.5214646 1.3878521 -1.3776572
3.5293081 1.3781501 -1.3790252
3.5184269 1.4208246 -1.3810773
3.5136585 1.4074984 -1.3776572
3.5108504 1.4542418 -1.3831295
3.5099342 1.441677 -1.3810773
3.5020127 1.4262931 -1.376289
3.5076127 1.4766266 -1.3851815
3.5052114 1.5110337 -1.3892858
3.5025058 1.4982833 -1.3865497
3.5000145 1.4849489 -1.3838134
3.4858546 1.5272824 -1.3851815
3.4935536 1.5190399 -1.3865497
3.4709516 1.5562669 -1.3844975
3.4781375 1.5354919 -1.3838134
3.4690478 1.5787424 -1.3872337
3.4765942 1.5712036 -1.3886019
3.4551382 1.6089565 -1.3872337
3.4593391 1.5999043 -1.3872337
3.4745972 1.5937306 -1.391338
3.4721823 1.6301858 -1.3961263
3.465008 1.6497566 -1.3968102
3.1340272 -1.8446099 -1.4200373
3.1333728 -1.8309952 -1.4171273
3.1591136 -1.7975446 -1.4193097
3.1456838 -1.8022792 -1.4156723
3.1483912 -1.8162594 -1.4193097
3.1658552 -1.7780484 -1.4178548
3.1527686 -1.782298 -1.4142174
3.1681926 -1.7431691 -1.4120349
3.1698313 -1.7556201 -1.4149448
3.1681709 -1.7662793 -1.4163998
3.1765428 -1.7240041 -1.4113075
3.1782556 -1.7364409 -1.4142174
3.1832409 -1.6918465 -1.40767
3.1900022 -1.7068818 -1.4127624
3.186264 -1.717779 -1.4134898
3.1915741 -1.6720626 -1.4069426
3.1912479 -1.6846902 -1.409125
3.2104421 -1.6478187 -1.409125
3.1992078 -1.6533561 -1.4062151
3.1978836 -1.6640035 -1.40767
3.2068641 -1.6220118 -1.4033052
3.2086773 -1.6349028 -1.4062151
3.2256272 -1.5970072 -1.4054875
3.227824 -1.6093336 -1.4083976
3.2180405 -1.6163951 -1.4062151
3.2333727 -1.5770212 -1.4047601
3.233418 -1.5896372 -1.4069426
3.2436483 -1.547141 -1.4033052
3.2424018 -1.5583724 -1.4047601
3.2394407 -1.5687978 -1.4054875
3.2502861 -1.5287756 -1.4025778
3.2409532 -1.5354533 -1.4003953
3.2603793 -1.4982283 -1.4011228
3.2578733 -1.5081097 -1.4018502
3.2466311 -1.5146189 -1.3989403
3.2636046 -1.4776903 -1.3989403
3.2679403 -1.490664 -1.4025778
3.2817402 -1.4508421 -1.4011228
3.2689126 -1.4567809 -1.3974854
3.2694175 -1.4693345 -1.3996679
3.2897918 -1.4324908 -1.4011228
3.2774997 -1.4373574 -1.3974854
3.2953091 -1.4008125 -1.3982128
3.2894261 -1.4098498 -1.3974854
3.2871866 -1.4197687 -1.3982128
3.3018451 -1.3805145 -1.3974854
3.2996938 -1.3904531 -1.3982128
3.3029456 -1.3485796 -1.3931205
3.3060579 -1.360634 -1.3960304
3.3002858 -1.3697231 -1.3953029
3.3057034 -1.326874 -1.390938
3.314074 -1.3409916 -1.3960304
3.3186646 -1.2992343 -1.3916656
3.3150237 -1.3084966 -1.3916656
3.3163192 -1.3203942 -1.3938479
3.3315322 -1.2815247 -1.3938479
3.3329258 -1.2934259 -1.3960304
3.34237 -1.2529866 -1.3938479
3.3373358 -1.2610739 -1.3931205
3.3335793 -1.2709705 -1.3931205
3.351495 -1.2337741 -1.3945755
3.3353784 -1.2397535 -1.3894831
3.3584163 -1.2038097 -1.3931205
3.3497853 -1.211283 -1.390938
3.3446395 -1.2199942 -1.3902106
3.3563008 -1.1819401 -1.3894831
3.3739407 -1.1538423 -1.392393
3.3528926 -1.1577672 -1.3851182
3.3547201 -1.1695502 -1.3873006
3.3697355 -1.131423 -1.3880281
3.3645995 -1.1408179 -1.3873006
3.3814442 -1.1019611 -1.3887556
3.3815045 -1.1137445 -1.3902106
3.3815243 -1.1255389 -1.3916656
3.3838081 -1.0825144 -1.3873006
3.3791895 -1.0907972 -1.3865732
3.3950889 -1.0529039 -1.3880281
3.3864315 -1.0618924 -1.3858457
3.3870051 -1.0724696 -1.3873006
3.3959291 -1.0311148 -1.3858457
3.398016 -1.0434189 -1.3880281
3.4008741 -1.0015767 -1.3843907
3.4034207 -1.0126637 -1.3865732
3.3948705 -1.0217402 -1.3843907
3.4067576 -0.9813779 -1.3843907
3.4020422 -0.99096066 -1.3836633
3.4204092 -0.95370853 -1.3865732
3.4121854 -0.96233582 -1.3843907
3.4024875 -0.96922392 -1.3814808
3.424211 -0.93290508 -1.3858457
3.4122837 -0.94118118 -1.3822083
3.4247005 -0.90228754 -1.3829359
3.4221673 -0.91184759 -1.3829359
3.4214063 -0.92188513 -1.3836633
3.4227769 -0.8800934 -1.3800259
3.4239118 -0.89058608 -1.3814808
3.4319866 -0.85123801 -1.3807534
3.424325 -0.85886037 -1.3785709
3.4289844 -0.8708511 -1.3814808
3.429734 -0.82910639 -1.3778434
3.4344971 -0.8410514 -1.3807534
3.4364071 -0.80916643 -1.3785709
3.4392841 -0.82125628 -1.3807534
3.4466989 -0.78117317 -1.3800259
3.4425507 -0.79097915 -1.3792984
3.4424622 -0.74869013 -1.375661
3.4530933 -0.76110739 -1.3807534
3.4520576 -0.73060948 -1.3778434
3.4537768 -0.74042553 -1.3792984
3.4675541 -0.70170116 -1.3814808
3.467406 -0.71175623 -1.3822083
3.4560339 -0.72074413 -1.3785709
3.4623976 -0.67992294 -1.3778434
3.4621923 -0.69055748 -1.3785709
3.4736927 -0.65071142 -1.3800259
3.4735768 -0.6613636 -1.3807534
3.4659948 -0.67121035 -1.3785709
3.4663358 -0.63931894 -1.3763884
3.4716341 -0.59903133 -1.375661
3.4661715 -0.60868484 -1.3742061
3.4717944 -0.61967123 -1.377116
3.47329 -0.57811391 -1.3749336
3.4770699 -0.58935082 -1.377116
3.4873085 -0.54983997 -1.3785709
3.4857593 -0.55957621 -1.3785709
3.4859223 -0.57021701 -1.3792984
3.4813001 -0.52774024 -1.3749336
3.485148 -0.53952944 -1.377116
3.4856861 -0.49794877 -1.3749336
3.4861252 -0.50794935 -1.375661
3.4809175 -0.51774246 -1.3742061
3.4884126 -0.47847337 -1.3749336
3.4925981 -0.48898789 -1.377116
3.4906855 -0.4471671 -1.3742061
3.4911904 -0.45776436 -1.3749336
3.4898984 -0.46751183 -1.3749336
3.485806 -0.42615059 -1.3712962
3.4956939 -0.43727052 -1.375661
3.5059831 -0.39821663 -1.3778434
3.4975264 -0.40653351 -1.3749336
3.5017815 -0.41818202 -1.377116
3.5082843 -0.37740481 -1.3778434
3.4979579 -0.38617814 -1.3742061
3.5021741 -0.34585983 -1.3742061
3.499279 -0.35606086 -1.3734787
3.5000603 -0.36663595 -1.3742061
3.507761 -0.32664019 -1.375661
3.5068352 -0.33643439 -1.375661
3.5003579 -0.30501047 -1.3720236
3.5086596 -0.31684339 -1.375661
3.5057702 -0.28514695 -1.3734787
3.5143549 -0.24574763 -1.375661
3.5118413 -0.25481251 -1.3749336
3.5035927 -0.26528141 -1.3720236
3.5176497 -0.2243938 -1.3763884
3.5280805 -0.23619036 -1.3807534
3.5138257 -0.19460781 -1.3742061
3.5281472 -0.20528522 -1.3800259
3.5201223 -0.21468323 -1.377116
3.5223615 -0.17412098 -1.377116
3.5143876 -0.18418126 -1.3742061
3.5181375 -0.14376315 -1.3749336
3.5195835 -0.15366833 -1.375661
3.5172513 -0.16402367 -1.3749336
3.5263546 -0.12375924 -1.3778434
3.5166636 -0.13386725 -1.3742061
3.5273166 -0.09236604 -1.3778434
3.5251465 -0.10339233 -1.377116
3.5229821 -0.11317614 -1.3763884
3.5275462 -0.083131239 -1.3778434
3.5264142 -0.041854292 -1.377116
3.5300093 -0.051756345 -1.3785709
3.526104 -0.06277959 -1.377116
3.5359077 -0.022217054 -1.3807534
3.5227914 -0.031972717 -1.375661
3.5285137 0.0092364736 -1.3778434
3.5266623 -0.0012310374 -1.377116
3.5265441 0.028928375 -1.377116
3.5391965 0.059924066 -1.3822083
3.5263102 0.049855098 -1.377116
3.5245726 0.039987057 -1.3763884
3.5238783 0.080582909 -1.3763884
3.5315404 0.070892237 -1.3792984
3.537957 0.11118589 -1.3822083
3.52896 0.10042207 -1.3785709
3.531105 0.08999911 -1.3792984
3.5316727 0.13135216 -1.3800259
3.5338876 0.121554 -1.3807534
3.5271349 0.15153304 -1.3785709
3.5312674 0.14183129 -1.3800259
3.53126 0.18259539 -1.3807534
3.5262039 0.17184404 -1.3785709
3.5202713 0.21222569 -1.377116
3.5320096 0.20303653 -1.3814808
3.5381436 0.19347659 -1.3836633
3.5356801 0.23422025 -1.3836633
3.5382578 0.22322942 -1.3843907
3.5242586 0.26375356 -1.3800259
3.5249817 0.25390986 -1.3800259
3.5331113 0.24458221 -1.3829359
3.530159 0.28403065 -1.3829359
3.5309384 0.2741704 -1.3829359
3.5163023 0.31505775 -1.3785709
3.5209868 0.30433092 -1.3800259
3.5255361 0.29480839 -1.3814808
3.5293248 0.3361049 -1.3843907
3.5191755 0.32460734 -1.3800259
3.5262573 0.3668924 -1.3843907
3.510648 0.35474309 -1.3778434
3.5265784 0.34516314 -1.3836633
3.5130417 0.38536251 -1.3800259
3.5121865 0.3759647 -1.3792984
3.5113225 0.41683647 -1.3807534
3.518167 0.40644372 -1.3829359
3.5137343 0.39599055 -1.3807534
3.5106356 0.43789664 -1.3814808
3.5064464 0.42618847 -1.3792984
3.5025938 0.45677122 -1.3792984
3.513252 0.44694149 -1.3829359
3.5058546 0.4883489 -1.3822083
3.5109801 0.47844839 -1.3836633
3.5052359 0.51885861 -1.3836633
3.5062351 0.49901074 -1.3829359
3.5039363 0.53993398 -1.3843907
3.4982467 0.52781224 -1.3814808
3.4956126 0.56867254 -1.3829359
3.4898283 0.55773157 -1.3800259
3.5024149 0.54971778 -1.3843907
3.4939103 0.57903939 -1.3829359
3.498014 0.62120241 -1.3873006
3.4867821 0.60979646 -1.3822083
3.4959207 0.6007092 -1.3851182
3.4888811 0.640329 -1.3851182
3.4961553 0.63157952 -1.3873006
3.4848726 0.6717124 -1.3858457
3.4903955 0.6626721 -1.3873006
3.4850209 0.65094537 -1.3843907
3.4792392 0.69080269 -1.3851182
3.4794452 0.68011814 -1.3843907
3.4749024 0.72151667 -1.3858457
3.4842045 0.71330369 -1.3887556
3.4846017 0.70198691 -1.3880281
3.4671745 0.74013543 -1.3843907
3.4709239 0.73143733 -1.3851182
3.4639518 0.77238065 -1.3858457
3.4704263 0.75160021 -1.3865732
3.4612615 0.79273504 -1.3865732
3.4619179 0.78144604 -1.3858457
3.4543555 0.82230663 -1.3865732
3.45678 0.81205434 -1.3865732
3.464479 0.80365992 -1.3887556
3.4513719 0.84263086 -1.3873006
3.4494572 0.87348968 -1.3894831
3.4571543 0.86581105 -1.3916656
3.4490054 0.852265 -1.3873006
3.4422545 0.89407349 -1.3887556
3.4504602 0.88464367 -1.390938
3.4434776 0.92589927 -1.392393
3.4426088 0.91472036 -1.390938
3.443505 0.9040311 -1.3902106
3.4380882 0.94571561 -1.392393
3.4446375 0.93588746 -1.3938479
3.4227066 0.97304571 -1.3894831
3.4289968 0.964495 -1.390938
3.4298823 0.95441514 -1.3902106
3.4204495 0.99438137 -1.390938
3.413605 1.0241319 -1.3916656
3.4198458 1.0162536 -1.3931205
3.4301724 1.0076025 -1.3960304
3.4131761 1.0448174 -1.3938479
3.4142976 1.0347406 -1.3931205
3.4055178 1.0757163 -1.3945755
3.4049523 1.0650903 -1.3931205
3.4100616 1.0549376 -1.3938479
3.3994565 1.0947199 -1.3945755
3.3878098 1.1243482 -1.3938479
3.3962455 1.1166296 -1.3960304
3.3875279 1.101328 -1.390938
3.3883367 1.1462302 -1.3967578
3.4005551 1.1391313 -1.4003953
3.3889682 1.1788361 -1.4011228
3.381882 1.1651368 -1.3967578
3.3784008 1.1976827 -1.3996679
3.3766665 1.1858007 -1.3974854
3.3735006 1.2278547 -1.4018502
3.3839264 1.2209575 -1.4047601
3.3803058 1.208994 -1.4018502
3.3746707 1.2516789 -1.4054875
3.3733404 1.2391429 -1.4033052
3.3623252 1.2792437 -1.4047601
3.3623984 1.268533 -1.4033052
3.362438 1.2578336 -1.4018502
3.3529375 1.298501 -1.4040326
3.3604794 1.2892948 -1.4054875
3.3432095 1.3283989 -1.4047601
3.3555729 1.3224721 -1.4083976
3.3458276 1.3065033 -1.4025778
3.3478305 1.3519337 -1.4098525
3.3394873 1.3377291 -1.4047601
3.335665 1.3816776 -1.4098525
3.336303 1.3703593 -1.4083976
3.3420799 1.3611561 -1.409125
3.3310857 1.4023128 -1.4113075
3.3317931 1.3909881 -1.4098525
3.3263793 1.4229409 -1.4127624
3.3220112 1.4094275 -1.409125
3.3104227 1.4504191 -1.4113075
3.316169 1.4419109 -1.4120349
3.304698 1.4817239 -1.4142174
3.310781 1.4726715 -1.4149448
3.2895882 1.4970714 -1.4113075
3.3002868 1.4915236 -1.4142174
3.2899089 1.532014 -1.4171273
3.2905271 1.5218308 -1.4156723
3.2935982 1.5107096 -1.4149448
3.2827148 1.5517337 -1.4178548
3.2884526 1.543925 -1.4185822
3.2704506 1.5817013 -1.4185822
3.2734494 1.5711851 -1.4178548
3.2766869 1.5600933 -1.4171273
3.1022704 -1.4255732 -1.426065
3.1033015 -1.4365565 -1.4283775
3.1057155 -1.4488789 -1.4314609
3.1152272 -1.4105083 -1.4283775
3.1012022 -1.4146068 -1.4237524
3.1276588 -1.3827236 -1.4283775
3.1174707 -1.4010469 -1.4276067
3.1302567 -1.3630236 -1.426065
3.1266775 -1.3712139 -1.426065
3.1386352 -1.3342115 -1.4245232
3.1295738 -1.3413371 -1.4222107
3.1292048 -1.3515347 -1.4237524
3.1413894 -1.3134273 -1.4222107
3.1428113 -1.3243446 -1.4245232
3.1437395 -1.2835765 -1.4183564
3.1520891 -1.297267 -1.4237524
3.1465218 -1.3059061 -1.4229816
3.1564391 -1.2669609 -1.420669
3.158021 -1.2778471 -1.4229816
3.1705954 -1.2412663 -1.4222107
3.1602504 -1.2474049 -1.4191273
3.1668231 -1.2608722 -1.4237524
3.1744604 -1.2211046 -1.420669
3.1742644 -1.2318535 -1.4222107
3.1847873 -1.1939119 -1.420669
3.1695666 -1.1976793 -1.4152731
3.1797943 -1.2123379 -1.4214399
3.183157 -1.1718044 -1.4168148
3.1829195 -1.1830848 -1.4183564
3.1982734 -1.1464074 -1.4191273
3.1915886 -1.1540791 -1.4175857
3.1935546 -1.1648843 -1.4198983
3.206367 -1.12914 -1.4198983
3.1979847 -1.136236 -1.4175857
3.207752 -1.097008 -1.416044
3.2166936 -1.1107372 -1.4214399
3.2098987 -1.1190614 -1.4198983
3.2138286 -1.0790756 -1.416044
3.2162871 -1.048139 -1.4129605
3.23226 -1.0645888 -1.4214399
3.2148914 -1.0700753 -1.4152731
3.2201536 -1.0301596 -1.4121897
3.2174456 -1.0385864 -1.4121897
3.233077 -1.0138047 -1.4152731
3.2337523 -1.0239433 -1.4168148
3.2297838 -0.98066765 -1.4098772
3.2319796 -0.99243456 -1.4121897
3.244967 -0.95566118 -1.4129605
3.2422857 -0.96471912 -1.4129605
3.245261 -0.93485588 -1.410648
3.2593122 -0.9192211 -1.4145023
3.2462456 -0.92471731 -1.4098772
3.2602429 -0.88823301 -1.4114189
3.2574365 -0.898471 -1.4114189
3.2568622 -0.85806811 -1.4067938
3.2687194 -0.87096083 -1.4129605
3.2591469 -0.87816501 -1.4098772
3.2636843 -0.83918613 -1.4075646
3.2649 -0.84922588 -1.4091064
3.265368 -0.80991149 -1.4052521
3.2590048 -0.82768184 -1.4044813
3.2719104 -0.79095399 -1.406023
3.2713416 -0.80109727 -1.4067938
3.271498 -0.76069957 -1.4029396
3.2747498 -0.77110124 -1.4052521
3.2864943 -0.74486375 -1.4075646
3.2788739 -0.75337189 -1.4052521
3.2910659 -0.71576345 -1.4067938
3.2908566 -0.72534829 -1.4075646
3.2957654 -0.73729485 -1.410648
3.2968178 -0.69775379 -1.4075646
3.2895663 -0.70522183 -1.4052521
3.2974713 -0.66728288 -1.4052521
3.2988734 -0.68796885 -1.4075646
3.3030708 -0.64863539 -1.406023
3.2920828 -0.65662807 -1.4021688
3.3104193 -0.62012613 -1.4067938
3.3013132 -0.62856489 -1.4037105
3.3011341 -0.63928407 -1.4044813
3.3084886 -0.60006136 -1.4044813
3.3080435 -0.57080376 -1.4021688
3.3136058 -0.58189321 -1.4052521
3.3119678 -0.59114426 -1.4052521
3.3095522 -0.55086046 -1.4013979
3.3060834 -0.56036925 -1.400627
3.3269026 -0.52454901 -1.4067938
3.3254247 -0.53383738 -1.4067938
3.322005 -0.54340386 -1.406023
3.3192358 -0.51384485 -1.4029396
3.3268442 -0.4752574 -1.4037105
3.3200254 -0.4837476 -1.4013979
3.3185756 -0.49359617 -1.4013979
3.3331034 -0.45717102 -1.4052521
3.3336415 -0.46673292 -1.406023
3.3260574 -0.42607778 -1.400627
3.3247788 -0.43594447 -1.400627
3.3308649 -0.44620746 -1.4037105
3.3321202 -0.40736201 -1.4021688
3.3328009 -0.4168945 -1.4029396
3.3281474 -0.37801769 -1.3990853
3.3332448 -0.39805543 -1.4021688
3.3431761 -0.35964325 -1.4044813
3.3366561 -0.36837023 -1.4021688
3.3351681 -0.32936701 -1.3998562
3.3396842 -0.33982167 -1.4021688
3.3534932 -0.31227484 -1.4067938
3.3468959 -0.28222325 -1.4029396
3.3497717 -0.29188886 -1.4044813
3.3433244 -0.30191308 -1.4021688
3.3458793 -0.27214199 -1.4021688
3.3536484 -0.24333435 -1.4044813
3.3455067 -0.2533116 -1.4013979
3.3519609 -0.21382436 -1.4029396
3.3531137 -0.22447707 -1.4037105
3.3591623 -0.18604203 -1.4052521
3.3531027 -0.19510025 -1.4029396
3.3488607 -0.20423843 -1.4013979
3.3596995 -0.1760744 -1.4052521
3.3574207 -0.14658815 -1.4037105
3.356971 -0.15654916 -1.4037105
3.3585515 -0.11787011 -1.4037105
3.3637197 -0.1280452 -1.406023
3.3631575 -0.088067383 -1.4052521
3.3610194 -0.09857849 -1.4044813
3.3681092 -0.10820084 -1.4075646
3.3635967 -0.069282681 -1.4052521
3.3633764 -0.079262361 -1.4052521
3.3806815 -0.040124621 -1.4121897
3.3547225 -0.049186323 -1.4013979
3.3550167 -0.021080468 -1.4013979
3.3641717 -0.03053309 -1.4052521
3.368001 -0.0011756542 -1.4067938
3.3698263 -0.01176296 -1.4075646
3.3715792 0.027657192 -1.4083356
3.3661065 0.018212486 -1.406023
3.3822803 0.057267234 -1.4129605
3.3676648 0.047612164 -1.4067938
3.3677845 0.038208261 -1.4067938
3.3708112 0.077082619 -1.4083356
3.369168 0.067632772 -1.4075646
3.3663392 0.10579254 -1.4067938
3.3611042 0.095645472 -1.4044813
3.3632181 0.085720092 -1.4052521
3.3785837 0.12565836 -1.4121897
3.3678551 0.11584303 -1.4075646
3.3667412 0.14464219 -1.4075646
3.359756 0.13494264 -1.4044813
3.3653507 0.17401651 -1.4075646
3.3713822 0.16429906 -1.4098772
3.3711083 0.20323314 -1.410648
3.3592916 0.1836964 -1.4052521
3.3569524 0.22238049 -1.4052521
3.3631601 0.21218248 -1.4075646
3.3604491 0.25149414 -1.4075646
3.3703418 0.2427709 -1.4114189
3.3562779 0.23234078 -1.4052521
3.3578937 0.26073384 -1.4067938
3.3637536 0.30138952 -1.410648
3.3646839 0.29082111 -1.410648
3.3581266 0.28080946 -1.4075646
3.3620179 0.32017192 -1.410648
3.3611152 0.31002793 -1.4098772
3.362767 0.34988189 -1.4121897
3.3564456 0.33916128 -1.4091064
3.3593314 0.32879385 -1.4098772
3.3442497 0.36684692 -1.4052521
3.3488688 0.35848224 -1.4067938
3.3555129 0.39833999 -1.4114189
3.3559842 0.37821242 -1.410648
3.3421023 0.41687474 -1.4067938
3.34706 0.40681598 -1.4083356
3.3494687 0.44631934 -1.4114189
3.3433824 0.43600857 -1.4083356
3.3502278 0.42620221 -1.410648
3.3504169 0.46669716 -1.4129605
3.3481297 0.45625645 -1.4114189
3.3517799 0.49614346 -1.4152731
3.3386264 0.48407844 -1.4091064
3.3508446 0.47689542 -1.4137315
3.343082 0.50440115 -1.4121897
3.33705 0.54287726 -1.4121897
3.3367305 0.5332641 -1.4114189
3.3436763 0.5248031 -1.4137315
3.3355894 0.56297594 -1.4129605
3.3372455 0.55307561 -1.4129605
3.328836 0.59115857 -1.4121897
3.3358257 0.58339596 -1.4145023
3.330267 0.5722447 -1.4114189
3.323561 0.60998708 -1.4114189
3.3234351 0.60037768 -1.410648
3.3143756 0.63884896 -1.4098772
3.3233991 0.63096684 -1.4129605
3.317996 0.65878791 -1.4129605
3.3104126 0.67772412 -1.4114189
3.3233802 0.66950822 -1.416044
3.302814 0.70504946 -1.410648
3.3100662 0.69753933 -1.4129605
3.3016832 0.73619848 -1.4129605
3.3057821 0.72621894 -1.4137315
3.3151371 0.71796888 -1.4168148
3.3027849 0.75643897 -1.4152731
3.2997856 0.78551137 -1.4168148
3.3021016 0.77571785 -1.4168148
3.3060529 0.76690966 -1.4175857
3.2862425 0.80231553 -1.4129605
3.2938526 0.79443258 -1.4152731
3.2917836 0.83356279 -1.4183564
3.2929473 0.81370229 -1.4168148
3.295562 0.85597235 -1.4222107
3.2910841 0.84378213 -1.4191273
3.2845564 0.88316774 -1.420669
3.2871628 0.87341744 -1.420669
3.2808142 0.86131948 -1.4168148
3.275857 0.90109062 -1.4191273
3.2733288 0.88934386 -1.4168148
3.2609305 0.92705423 -1.416044
3.2652826 0.91844612 -1.4168148
3.2678349 0.90932316 -1.4168148
3.2660041 0.94948149 -1.420669
3.2654235 0.93819618 -1.4191273
3.2559969 0.97684723 -1.4198983
3.2709262 0.97200012 -1.4252942
3.2686524 0.96015644 -1.4229816
3.2487257 0.99447703 -1.4191273
3.2467847 1.0255765 -1.4222107
3.2602036 1.019812 -1.4268358
3.2581027 1.0079275 -1.4245232
3.2480328 1.0459571 -1.4252942
3.2472436 1.0363286 -1.4237524
3.2363231 1.0640497 -1.4229816
3.2363241 1.0521697 -1.4214399
3.2271051 1.0916877 -1.4229816
3.2373295 1.0844532 -1.426065
3.2227025 1.1102958 -1.4237524
3.238209 1.1048996 -1.4291483
3.216171 1.1401703 -1.4252942
3.2265048 1.1330676 -1.4283775
3.204772 1.1664424 -1.4245232
3.2149608 1.1599929 -1.4276067
3.206238 1.1892066 -1.4283775
3.2099586 1.1791271 -1.4283775
3.2013378 1.2179937 -1.4306901
3.1960933 1.205791 -1.4268358
3.1957746 1.2376362 -1.4314609
3.1944783 1.2256061 -1.4291483
3.1882827 1.2668399 -1.4330026
3.2003932 1.2613138 -1.4368567
3.1974633 1.2485689 -1.4337735
3.1760237 1.2825541 -1.4306901
3.1847329 1.2757378 -1.4330026
3.1747127 1.315009 -1.4353151
3.1820142 1.3069865 -1.4368567
3.1773326 1.2940581 -1.4330026
3.1738894 1.3361366 -1.4383985
3.1727304 1.3245811 -1.4360859
3.1606522 1.3625003 -1.4376277
3.166141 1.354395 -1.4383985
3.1565542 1.3392292 -1.4322317
3.1592727 1.3841946 -1.440711
3.14732 1.4111606 -1.440711
3.149806 1.401068 -1.4399401
3.1553953 1.3930111 -1.440711
3.1377096 1.4279524 -1.4399401
3.1368394 1.4607341 -1.4453361
3.1356282 1.4501919 -1.4430236
3.1351361 1.4380262 -1.440711
3.1217 1.4756223 -1.4422528
3.1322351 1.4705811 -1.4453361
3.1101041 1.5041522 -1.4430236
3.1178803 1.4965154 -1.4445653
3.1175675 1.4843334 -1.4422528
3.1009138 1.5104079 -1.440711
3.0643737 -0.99863267 -1.4349669
3.0698984 -1.0111127 -1.4390343
3.0632393 -1.019598 -1.4374074
3.0766931 -0.98426515 -1.4382209
3.0827994 -0.99512285 -1.4422883
3.0805674 -0.96598178 -1.4374074
3.0621812 -0.96961659 -1.4300861
3.073473 -0.9332065 -1.4300861
3.0792592 -0.94553912 -1.4341536
3.0846884 -0.90845817 -1.4317131
3.0961492 -0.92123723 -1.4382209
3.0792432 -0.92674708 -1.4317131
3.0917804 -0.89064312 -1.4325265
3.0943868 -0.90134561 -1.4349669
3.0940044 -0.86269748 -1.4300861
3.0967064 -0.87336159 -1.4325265
3.1025949 -0.84528279 -1.4317131
3.0981627 -0.85453987 -1.4308995
3.1201682 -0.82205409 -1.4365939
3.0984399 -0.82558936 -1.4276457
3.1084716 -0.83756608 -1.43334
3.1179135 -0.80170429 -1.43334
3.1068211 -0.80810833 -1.4292727
3.1086955 -0.77105194 -1.4260188
3.1155269 -0.78141022 -1.4300861
3.109653 -0.78975123 -1.4284592
3.1149919 -0.75302041 -1.4268322
3.1251667 -0.76530147 -1.4325265
3.1250038 -0.72663623 -1.4284592
3.1229625 -0.73536003 -1.4284592
3.124191 -0.74601614 -1.4300861
3.1307952 -0.70957553 -1.4292727
3.1340182 -0.72008908 -1.4317131
3.1386535 -0.68261576 -1.4300861
3.1313822 -0.690198 -1.4276457
3.145992 -0.66583234 -1.4317131
3.1442382 -0.67406625 -1.4317131
3.1428416 -0.64513272 -1.4284592
3.1354337 -0.65388405 -1.4260188
3.142812 -0.62685496 -1.4268322
3.1409481 -0.5883798 -1.4227648
3.146368 -0.59906358 -1.4260188
3.1426764 -0.60859787 -1.4252052
3.1425788 -0.57960635 -1.4227648
3.1564183 -0.55428994 -1.4268322
3.1602542 -0.56406528 -1.4292727
3.161227 -0.5261724 -1.4268322
3.1524465 -0.53432834 -1.4235784
3.1656113 -0.49911839 -1.4268322
3.1605971 -0.50737727 -1.4252052
3.1735029 -0.51911235 -1.4317131
3.1576786 -0.47868153 -1.4219513
3.1687984 -0.49055594 -1.4276457
3.1707008 -0.45295149 -1.4260188
3.1676154 -0.46154052 -1.4252052
3.1680393 -0.47120577 -1.4260188
3.1731811 -0.43523598 -1.4260188
3.175117 -0.40674183 -1.4252052
3.1811423 -0.41711092 -1.4284592
3.1745327 -0.42526498 -1.4260188
3.1755931 -0.38822612 -1.4243917
3.1817486 -0.39799964 -1.4276457
3.1806128 -0.36126041 -1.4252052
3.1832857 -0.37000787 -1.4268322
3.1936002 -0.34355256 -1.4300861
3.1871803 -0.35186794 -1.4276457
3.1855671 -0.31459308 -1.4252052
3.1846197 -0.32404345 -1.4252052
3.1981814 -0.33501375 -1.4317131
3.1909127 -0.29713547 -1.4268322
3.1937079 -0.30639398 -1.4284592
3.195205 -0.26943207 -1.4276457
3.19173 -0.28822362 -1.4268322
3.2003469 -0.25131074 -1.4292727
3.1905272 -0.2595062 -1.4252052
3.1950886 -0.22342235 -1.4260188
3.2017817 -0.23231518 -1.4292727
3.199214 -0.24223477 -1.4284592
3.1945701 -0.20378429 -1.4252052
3.1979897 -0.17711572 -1.4260188
3.200598 -0.19519626 -1.4276457
3.2026341 -0.15831588 -1.4276457
3.1966763 -0.16753072 -1.4252052
3.1929173 -0.13047355 -1.4227648
3.205318 -0.13994721 -1.4284592
3.2048886 -0.14945693 -1.4284592
3.2100496 -0.11265835 -1.4300861
3.2042241 -0.12197375 -1.4276457
3.2072723 -0.083985381 -1.4284592
3.1942084 -0.093685932 -1.4227648
3.2012391 -0.10284013 -1.4260188
3.2022114 -0.065958492 -1.4260188
3.2111342 -0.075674579 -1.4300861
3.1988924 -0.046901569 -1.4243917
3.2119625 -0.02018162 -1.4300861
3.2009315 -0.029051529 -1.4252052
3.2083714 -0.001119933 -1.4284592
3.2138333 -0.01121844 -1.4308995
3.2009559 0.026257562 -1.4252052
3.1955352 0.017289601 -1.4227648
3.1987777 0.054160252 -1.4243917
3.2080512 0.04535554 -1.4284592
3.2063382 0.036376618 -1.4276457
3.2038798 0.073265284 -1.4268322
3.2205126 0.064648658 -1.4341536
3.2122669 0.10095057 -1.4308995
3.2052472 0.091210313 -1.4276457
3.2055035 0.08170034 -1.4276457
3.2061548 0.11924529 -1.4284592
3.2123187 0.14699395 -1.4317131
3.1984847 0.12846527 -1.4252052
3.2077405 0.16586675 -1.4300861
3.2228179 0.157059 -1.4365939
3.2080286 0.19340159 -1.4308995
3.2067318 0.18433803 -1.4300861
3.1995318 0.21195219 -1.4276457
3.2147698 0.20282049 -1.4341536
3.2212882 0.2410794 -1.4382209
3.20737 0.23103179 -1.4317131
3.2043571 0.22182396 -1.4300861
3.1962159 0.25716215 -1.4276457
3.2005649 0.24851756 -1.4292727
3.2010295 0.28680956 -1.4308995
3.2128367 0.27769646 -1.4357804
3.1990337 0.26750597 -1.4292727
3.2020872 0.29535922 -1.4317131
3.2075009 0.33372712 -1.4357804
3.1993876 0.32329094 -1.4317131
3.2003875 0.31323728 -1.4317131
3.1965058 0.35064018 -1.4317131
3.2010465 0.34265849 -1.43334
3.1932583 0.37907839 -1.4317131
3.1944335 0.36904371 -1.4317131
3.1936359 0.35991612 -1.4308995
3.1927655 0.39824733 -1.4325265
3.1976285 0.38865346 -1.4341536
3.1929395 0.42546171 -1.4341536
3.1917832 0.40604553 -1.4325265
3.192168 0.44465387 -1.4349669
3.184634 0.47140187 -1.43334
3.1860187 0.46195135 -1.43334
3.1926439 0.45438012 -1.4357804
3.1835861 0.49057007 -1.4341536
3.1778848 0.47947636 -1.4308995
3.186578 0.51839823 -1.4374074
3.1771882 0.5077666 -1.4325265
3.1840086 0.49974269 -1.4349669
3.1798427 0.53668922 -1.4357804
3.1814213 0.52725118 -1.4357804
3.1769357 0.564183 -1.4365939
3.167603 0.55397588 -1.4317131
3.1782365 0.54612106 -1.4357804
3.1664455 0.58115101 -1.43334
3.1716516 0.57295799 -1.4349669
3.1665292 0.61035144 -1.4357804
3.1700163 0.60184628 -1.4365939
3.1646042 0.5910967 -1.43334
3.1559024 0.6266042 -1.4325265
3.1664147 0.65746331 -1.4398478
3.1610787 0.64715171 -1.4365939
3.1577225 0.63613582 -1.4341536
3.144825 0.67132366 -1.4317131
3.1537232 0.66459274 -1.4349669
3.1439531 0.70102835 -1.4341536
3.1514933 0.69232458 -1.4365939
3.1481767 0.68180972 -1.4341536
3.1505489 0.72157228 -1.4390343
3.1403248 0.70885402 -1.43334
3.1318209 0.74552751 -1.43334
3.1375761 0.73706812 -1.4349669
3.1431823 0.7291283 -1.4365939
3.1398995 0.76658684 -1.4390343
3.1438046 0.75824302 -1.4398478
3.1314573 0.7929641 -1.4382209
3.1282063 0.78342921 -1.4357804
3.1318607 0.81345344 -1.4406612
3.1397104 0.80497235 -1.4431016
3.1194961 0.83878553 -1.4382209
3.1325665 0.8323403 -1.4431016
3.1226511 0.81979656 -1.4374074
3.1110904 0.85576826 -1.4365939
3.1261055 0.84934419 -1.4422883
3.1177177 0.88634002 -1.4431016
3.1155782 0.86695546 -1.4398478
3.1106484 0.90431702 -1.4422883
3.108206 0.8930257 -1.4398478
3.0975506 0.92931104 -1.4398478
3.105227 0.92276031 -1.4422883
3.1168766 0.91557276 -1.4463556
3.0993004 0.94873601 -1.4431016
3.0977023 0.97848517 -1.4463556
3.0969348 0.96874052 -1.4447286
3.0912356 0.95630556 -1.4406612
3.0939281 0.9963311 -1.4471691
3.0791197 0.98267329 -1.4390343
3.0849371 1.0238307 -1.4471691
3.0895195 1.0157832 -1.4479825
3.0824461 1.002142 -1.4431016
3.0634124 1.0363126 -1.4398478
3.071671 1.0289603 -1.4422883
3.0699694 1.0678738 -1.4471691
3.0662136 1.0563818 -1.4439151
3.0727935 1.0484587 -1.4455421
3.0721881 1.0891267 -1.4512364
3.0754063 1.0800056 -1.4512364
3.0609021 1.1044068 -1.448796
3.0691347 1.0977012 -1.4512364
3.0595152 1.1347865 -1.4528633
3.0596352 1.1239082 -1.4512364
3.0430703 1.1577787 -1.4496094
3.0477781 1.1401244 -1.448796
3.0514805 1.1817551 -1.4569308
3.0500607 1.1701983 -1.4544903
3.0478435 1.2110374 -1.4601846
3.0461144 1.2005107 -1.4577441
3.0362549 1.185619 -1.4512364
3.0325613 1.2246206 -1.4561173
3.039362 1.2175051 -1.4577441
3.0232296 1.2522626 -1.4569308
3.0303116 1.2446759 -1.4585577
3.0322995 1.2349893 -1.4577441
3.0159667 1.2696546 -1.4569308
3.0247784 1.2628127 -1.4593711
3.0049982 1.2954007 -1.4569308
3.0136433 1.2891603 -1.4593711
3.014091 1.2787864 -1.4577441
3.0009143 1.3048342 -1.4569308
2.9925873 1.3417832 -1.4601846
2.989877 1.3299298 -1.4569308
2.9969225 1.3230503 -1.4585577
2.9933617 1.3622605 -1.464252
3.0019124 1.3566771 -1.4666924
2.9846716 1.389874 -1.4658788
2.9816673 1.3789867 -1.462625
2.9843237 1.3688515 -1.4618115
2.9716618 1.4046994 -1.4634385
2.9819448 1.4000198 -1.4666924
2.9541068 1.4287066 -1.4609982
2.9632742 1.4223077 -1.4634385
2.9710269 1.4145627 -1.4650655
2.9550331 1.4393516 -1.4634385
2.9518621 1.4582611 -1.4658788
3.020716 -0.50278497 -1.4494922
3.0209932 -0.51204747 -1.4503478
3.0217767 -0.48509213 -1.4486365
3.0238922 -0.49463943 -1.4503478
3.0258949 -0.45870405 -1.4486365
3.0315845 -0.4693141 -1.4520591
3.0261281 -0.43229851 -1.4469252
3.03074 -0.45078427 -1.4503478
3.0267041 -0.41514507 -1.4460695
3.0302794 -0.38818774 -1.4460695
3.0309069 -0.39741206 -1.4469252
3.0351603 -0.40659446 -1.4494922
3.0288763 -0.3702895 -1.4443582
3.0399985 -0.35335296 -1.4486365
3.0334885 -0.36225858 -1.4460695
3.0411119 -0.32714859 -1.4477808
3.0329993 -0.3348462 -1.4443582
3.0501392 -0.31035972 -1.4512035
3.0420136 -0.31865495 -1.4477808
3.0436823 -0.28342551 -1.4469252
3.0446784 -0.29209659 -1.4477808
3.0442383 -0.25670198 -1.4460695
3.0390608 -0.2744371 -1.4443582
3.0582817 -0.24015491 -1.4520591
3.0395813 -0.2472288 -1.4435025
3.048835 -0.22121766 -1.4469252
3.0535326 -0.23120423 -1.4494922
3.0524535 -0.19471854 -1.4477808
3.0464158 -0.20394491 -1.4452139
3.0467577 -0.16873997 -1.4443582
3.0571027 -0.17787749 -1.4494922
3.0602028 -0.18663393 -1.4512035
3.0488825 -0.12458779 -1.4443582
3.0611646 -0.13365333 -1.4503478
3.0625603 -0.1428196 -1.4512035
3.0585825 -0.10734254 -1.4486365
3.0564442 -0.11634828 -1.4477808
3.0576098 -0.080066331 -1.4477808
3.0588875 -0.098267063 -1.4486365
3.0580091 -0.062988251 -1.4477808
3.054827 -0.036257122 -1.4460695
3.0637517 -0.044920161 -1.4503478
3.0712514 -0.019297494 -1.4537705
3.0711854 -0.027873958 -1.4537705
3.0586576 -0.001067673 -1.4477808
3.0676777 -0.010708258 -1.4520591
3.0675931 0.025163583 -1.4520591
3.0622284 0.016568338 -1.4494922
3.051122 0.043136869 -1.4443582
3.0674989 0.034801453 -1.4520591
3.0723164 0.070256732 -1.4546261
3.0634639 0.061496057 -1.4503478
3.0664549 0.087260768 -1.4520591
3.0685077 0.078208655 -1.4529148
3.0676901 0.10551835 -1.4529148
3.0684814 0.13182834 -1.4537705
3.0634186 0.12304042 -1.4512035
3.0563824 0.15804027 -1.4486365
3.0658658 0.14941017 -1.4529148
3.0608356 0.17595123 -1.4512035
3.0609872 0.20277435 -1.4520591
3.0598052 0.19304374 -1.4512035
3.0573385 0.22880951 -1.4512035
3.0669811 0.22091936 -1.4554819
3.0621758 0.21198136 -1.4529148
3.0596168 0.24617164 -1.4529148
3.0638971 0.23790558 -1.4546261
3.0536559 0.27360499 -1.4512035
3.0588286 0.25578189 -1.4529148
3.0619292 0.28243113 -1.4554819
3.0566194 0.31802854 -1.4546261
3.0521536 0.30841327 -1.4520591
3.0549068 0.29899839 -1.4529148
3.0565925 0.3352924 -1.4554819
3.0546107 0.35289037 -1.4554819
3.0501955 0.34375066 -1.4529148
3.0512819 0.3805995 -1.4554819
3.0470793 0.37035507 -1.4529148
3.0455241 0.39716503 -1.4537705
3.0521364 0.38828027 -1.4563375
3.0449769 0.41494521 -1.4546261
3.0435717 0.45052126 -1.4563375
3.044251 0.43326071 -1.4554819
3.0354848 0.46774858 -1.4537705
3.0387266 0.4584803 -1.4546261
3.035028 0.49374381 -1.4554819
3.0381801 0.48555085 -1.4563375
3.0427399 0.51354921 -1.4606159
3.0353334 0.50304031 -1.4563375
3.0328972 0.5386036 -1.4580488
3.0307353 0.53003931 -1.4563375
3.0287316 0.52043146 -1.4546261
3.0208547 0.55443019 -1.4537705
3.0277278 0.54695821 -1.4563375
3.0211251 0.58232468 -1.4563375
3.0155439 0.56325471 -1.4520591
3.0107334 0.59778088 -1.4529148
3.0142679 0.58919114 -1.4537705
3.0142517 0.62586874 -1.4571931
3.0177591 0.61781067 -1.4580488
3.014245 0.64344883 -1.4589044
3.0141511 0.63518029 -1.4580488
3.0082815 0.67077678 -1.4589044
3.0103738 0.66132325 -1.4589044
3.0043681 0.68809241 -1.4589044
3.0012252 0.67745554 -1.4563375
3.0036495 0.71501642 -1.4614714
2.9951987 0.70362133 -1.4563375
2.998913 0.69566196 -1.4571931
2.9977252 0.7318759 -1.4606159
2.9927282 0.72180545 -1.4571931
2.9878514 0.75659943 -1.4589044
3.0009346 0.74154466 -1.4631827
2.9796753 0.77392554 -1.4571931
2.9873452 0.7659083 -1.4597602
2.9799304 0.80125839 -1.4606159
2.9840419 0.79287654 -1.4614714
2.9898775 0.78493923 -1.4631827
2.9839814 0.82080436 -1.4648942
2.9848003 0.81095243 -1.4640385
2.9716361 0.84481025 -1.4623271
2.9687626 0.83504212 -1.4597602
2.9919817 0.83256286 -1.470028
2.9665701 0.86243105 -1.4623271
2.9660118 0.8898474 -1.4657497
2.9648654 0.88104999 -1.4640385
2.9661815 0.90798658 -1.4683168
2.9583254 0.89655316 -1.4631827
2.9554038 0.92446876 -1.4657497
2.9513862 0.91304165 -1.4623271
2.9527178 0.95085746 -1.4683168
2.9517524 0.94202524 -1.4666054
2.9321272 0.97311604 -1.4623271
2.9502885 0.97000629 -1.470028
2.9448936 0.95742196 -1.4657497
2.9333231 0.9923051 -1.4657497
2.9315598 1.0197288 -1.4691725
2.9226079 1.0069063 -1.4631827
2.93927 1.0028995 -1.470028
2.9203451 1.0352967 -1.4666054
2.9268155 1.0278243 -1.4683168
2.9149668 1.060962 -1.4683168
2.9157405 1.0428385 -1.4657497
2.9067361 1.0781201 -1.4674611
2.9152 1.0708523 -1.470028
2.9043608 1.1050047 -1.4708837
2.9057441 1.0962509 -1.470028
2.9071009 1.0874994 -1.4691725
2.8994379 1.1228731 -1.4717394
2.9181414 1.1195858 -1.4794403
2.8962486 1.1508024 -1.475162
2.896291 1.130965 -1.4717394
2.8847473 1.1649297 -1.4725951
2.8980582 1.1609018 -1.4777291
2.880945 1.1933265 -1.4760177
2.8995225 1.1909553 -1.4837186
2.8796048 1.1728001 -1.4717394
2.8756902 1.2106014 -1.4768734
2.8735321 1.238728 -1.4811517
2.870332 1.2278553 -1.4777291
2.8806186 1.2221582 -1.4811517
2.8644753 1.2550329 -1.4802961
2.8646533 1.2455864 -1.4785846
2.8590724 1.2717465 -1.4811517
2.8576519 1.2615665 -1.4785846
4.2574005 2.4530613 -0.92576051
4.2028942 2.4530241 -0.91687322
4.231832 2.4540944 -0.92168719
4.1272883 2.4574313 -0.90502346
4.1430211 2.450176 -0.90687501
4.1731415 2.4532664 -0.91205925
4.492795 2.3677809 -1.0794777
4.5119352 2.3607876 -1.0823884
4.4198666 2.3798561 -1.0670029
4.4463019 2.3760979 -1.071577
4.4623852 2.3667014 -1.0736561
4.3742948 2.3859348 -1.0591023
4.3951173 2.3803976 -1.0624288
4.3050332 2.3981175 -1.0474591
4.3258228 2.3929121 -1.0507858
4.3449068 2.3866582 -1.0536965
4.2592015 2.4038548 -1.0395585
4.2829618 2.4015205 -1.0437168
4.1969543 2.4182329 -1.0295788
4.2142987 2.4115984 -1.0320737
4.23206 2.4041455 -1.0345687
4.149591 2.4219136 -1.0212623
4.1698775 2.4181664 -1.0245889
4.0879569 2.4340129 -1.0112826
4.1069484 2.4288425 -1.0141933
4.1267838 2.4260142 -1.0175198
4.0432916 2.4400346 -1.0037977
4.0685458 2.4398 -1.0083718
4.549242 2.2810702 -1.205825
4.5681844 2.2736356 -1.2090529
4.5853801 2.2652416 -1.2118195
4.492662 2.2851791 -1.1942971
4.5237441 2.2841179 -1.2007527
4.0473232 2.3622251 -1.1103736
4.0656896 2.3577461 -1.1136014
3.8990386 2.3827846 -1.0827063
3.9227254 2.3813069 -1.0873176
3.9502654 2.305577 -1.1973728
3.9700794 2.3023007 -1.201425
3.7955725 2.3341386 -1.1664762
3.8152838 2.3316002 -1.1705282
3.8321068 2.3262963 -1.1735672
3.8753862 2.2618737 -1.2866752
3.8966565 2.2597218 -1.2916367
3.7158067 2.2850854 -1.2508423
3.738579 2.2847242 -1.256355
3.7568436 2.2806075 -1.260214
3.6347811 2.2352576 -1.3315002
3.6475258 2.2290797 -1.3338832
3.6639144 2.2241945 -1.3374577
3.5081046 2.257355 -1.3017128
3.5260475 2.2541337 -1.3058829
3.4273705 2.2054052 -1.3771433
3.4450746 2.2023692 -1.3816248
3.4142227 2.2257049 -1.3771433
3.4208121 2.215564 -1.3771433
4.6355267 2.1095996 -1.2067473
4.6222324 2.1524379 -1.2081306
4.6207871 2.1370606 -1.2062862
4.634553 2.1257796 -1.2081306
4.6115179 2.1798565 -1.2085917
4.6136861 2.1661208 -1.2076696
4.5971889 2.2233572 -1.2099751
4.6090288 2.2122345 -1.2113584
4.6089272 2.1943984 -1.209514
4.5965352 2.2558024 -1.213203
4.5962105 2.2387443 -1.2113584
4.4090571 2.2903218 -1.1772357
4.4327302 2.2869239 -1.181847
4.4616156 2.286072 -1.1878415
4.364398 2.3001134 -1.1689355
4.3884478 2.296175 -1.1735468
4.3009133 2.3158064 -1.1574076
4.3270493 2.3123696 -1.1624799
4.3497658 2.3069718 -1.16663
4.2541509 2.3204031 -1.1481851
4.2798419 2.3179643 -1.1532576
4.1908269 2.3344991 -1.1366572
4.204545 2.325825 -1.1385018
4.2284851 2.3227079 -1.1431129
4.1472158 2.3406513 -1.1283571
4.1707106 2.3385797 -1.1329683
4.0874329 2.3551283 -1.1177514
4.1062274 2.3497553 -1.1209793
4.1203575 2.3406894 -1.1228237
3.9830792 2.3715677 -1.0983845
4.0034995 2.3676631 -1.1020734
4.0197501 2.3630922 -1.1048402
3.9406095 2.3780682 -1.0905454
3.9622571 2.3760612 -1.0946954
4.3147244 2.0092404 -1.2459971
4.3217268 1.9987487 -1.2465037
4.3262253 1.9843558 -1.2459971
4.3048296 2.0348856 -1.2465037
4.3083911 2.0227849 -1.2459971
4.3004818 2.0798593 -1.2505556
4.2996564 2.0637424 -1.2485297
4.3008776 2.04773 -1.2470101
4.2988515 2.1097107 -1.2535946
4.2981353 2.0935562 -1.2515687
4.2806535 2.1463952 -1.2535946
4.2887335 2.1345496 -1.2541012
4.2950487 2.121814 -1.2541012
4.271668 2.1727712 -1.2546077
4.2850046 2.1635742 -1.2566338
4.2426295 2.2038696 -1.2515687
4.2522054 2.1937881 -1.2525816
4.2617598 2.1836686 -1.2535946
4.2328992 2.2308114 -1.2525816
4.2446432 2.220932 -1.2541012
4.1822104 2.2518911 -1.2434646
4.2080364 2.248769 -1.2490361
4.2236271 2.2400718 -1.2515687
4.1393919 2.2578084 -1.2343475
4.156281 2.2510438 -1.2373866
4.0920882 2.2794967 -1.2262435
4.1106834 2.2739038 -1.229789
4.1258917 2.2663531 -1.2323215
4.0523338 2.2871008 -1.2181395
4.0738926 2.2842925 -1.222698
3.9899037 2.2989333 -1.2054769
4.0118217 2.2957325 -1.2100354
4.0324721 2.2907639 -1.2140874
3.8950844 2.3191748 -1.1867363
3.9069455 2.3105612 -1.1882558
3.9329956 2.3120916 -1.1943338
3.8481228 2.3222547 -1.1766063
3.8794832 2.3264241 -1.1842037
3.7603078 2.3433185 -1.1598917
3.7816403 2.3419774 -1.16445
4.0834346 1.9015356 -1.2916367
4.0776286 1.9274881 -1.2932906
4.0809207 1.915988 -1.2927393
4.0620422 1.9645419 -1.2938418
4.0713196 1.9541456 -1.2949444
4.0757022 1.9405196 -1.2943931
4.059288 1.992142 -1.2965981
4.0599966 1.9775625 -1.2949444
4.0455408 2.0285058 -1.2977008
4.0532618 2.0173528 -1.298252
4.0609541 2.0061681 -1.2988033
4.0406442 2.0552616 -1.2999058
4.0415759 2.0406628 -1.298252
4.0331569 2.0950575 -1.3032135
4.0389915 2.0837872 -1.3032135
4.0345297 2.0672388 -1.2999058
4.0223536 2.1198502 -1.3037647
4.0286264 2.1079051 -1.3037647
4.0050178 2.1564829 -1.304316
4.0117745 2.143887 -1.304316
4.0184898 2.131274 -1.304316
3.9983556 2.1808808 -1.30597
4.0064998 2.1699224 -1.3065212
3.9653499 2.2088974 -1.3015597
3.9735677 2.1980555 -1.302111
3.985127 2.1890314 -1.3037647
3.9395571 2.2234504 -1.2971495
3.9491041 2.2143216 -1.298252
3.9046166 2.2497919 -1.292188
3.9146128 2.2401054 -1.2932906
3.9299886 2.2325449 -1.2960469
3.8108997 2.2690504 -1.2717909
3.8209255 2.2596891 -1.2728933
3.8467159 2.2613707 -1.2795087
3.7759693 2.2787116 -1.2646242
3.7955086 2.2760668 -1.2690344
3.6826022 2.2948945 -1.2442272
3.6922646 2.2866268 -1.2453296
3.641685 2.2986217 -1.2348554
3.6660054 2.2996802 -1.2409195
3.861248 1.8252053 -1.3326917
3.8591008 1.8118436 -1.3303087
3.8500061 1.8619939 -1.3344789
3.8555133 1.8505633 -1.3344789
3.8630316 1.8392632 -1.3350748
3.8465073 1.8735751 -1.3350748
3.8263776 1.9186133 -1.3356705
3.8303428 1.9064037 -1.3350748
3.8394067 1.8967205 -1.3362662
3.8186662 1.9423532 -1.336862
3.8244128 1.9310133 -1.336862
3.8120818 1.9802181 -1.3404363
3.8091133 1.965189 -1.3374577
3.8196843 1.957155 -1.339245
3.8019526 2.003695 -1.3410323
3.8028071 1.9897492 -1.339245
3.7890093 2.040174 -1.3428195
3.7920339 2.0264578 -1.341628
3.8000679 2.0154302 -1.3422236
3.7779162 2.0606434 -1.3428195
3.7840142 2.0494239 -1.3428195
3.7610939 2.0951164 -1.3434151
3.7689624 2.0848742 -1.3440109
3.7734592 2.072762 -1.3434151
3.7576466 2.1207819 -1.3463938
3.7552278 2.1056123 -1.3434151
3.7419283 2.1560528 -1.3475854
3.7449954 2.1430433 -1.3463938
3.7500489 2.1303251 -1.3457981
3.7215836 2.1721067 -1.3446068
3.7309384 2.1636198 -1.3457981
3.6975658 2.20157 -1.3428195
3.7155857 2.1973913 -1.3469898
3.7163877 2.1847544 -1.3452024
3.6746285 2.2175548 -1.339245
3.6955438 2.2161205 -1.3446068
3.6052494 2.2466905 -1.3255427
3.6212475 2.2426457 -1.3291173
3.5456128 2.2518511 -1.3106489
3.5599594 2.2470369 -1.3136277
3.5823944 2.2472312 -1.3195852
3.6434622 1.7621024 -1.3675398
3.6435494 1.7488252 -1.3656191
3.6541576 1.7398143 -1.3675398
3.6332519 1.78306 -1.3675398
3.6351202 1.7706116 -1.3662592
3.6161773 1.8132151 -1.3668995
3.6232364 1.8033246 -1.3675398
3.6353667 1.7959219 -1.3701007
3.6090505 1.8357328 -1.3681799
3.611099 1.8233074 -1.3668995
3.5999463 1.8700224 -1.3707409
3.6135733 1.8643066 -1.3739421
3.6035891 1.8464307 -1.3681799
3.590462 1.8922358 -1.3713812
3.5927031 1.8798162 -1.3701007
3.5734761 1.9241213 -1.3713812
3.5811756 1.9137754 -1.3720214
3.5854962 1.9016285 -1.3713812
3.5746577 1.9497772 -1.3758628
3.5770953 1.9373564 -1.3745823
3.5588171 1.9824382 -1.376503
3.5646822 1.9718726 -1.376503
3.5688572 1.9603741 -1.3758628
3.5493393 2.0032151 -1.3771433
3.5565724 1.9942232 -1.3777835
3.528084 2.0328383 -1.3758628
3.5341005 2.0223606 -1.3758628
3.5437307 2.0131199 -1.3771433
3.5215845 2.055377 -1.3777835
3.5371451 2.0512366 -1.3816248
3.5067699 2.0879683 -1.379064
3.5096891 2.0756245 -1.3777835
3.5281775 2.0741112 -1.3829054
3.5008066 2.1126573 -1.3816248
3.503444 2.1009231 -1.3803444
3.4862144 2.1438947 -1.3829054
3.4824874 2.1282215 -1.379064
3.4904058 2.1188653 -1.3797042
3.4734309 2.1645448 -1.3829054
3.4826834 2.1568327 -1.3841859
3.4515934 2.1921384 -1.3816248
3.467315 2.18856 -1.3854662
3.4685984 2.1758471 -1.3835455
3.463326 1.6749823 -1.4002305
3.4598083 1.6606334 -1.3968102
3.4501863 1.6805332 -1.3968102
3.4440403 1.7269026 -1.4022826
3.4407351 1.7124916 -1.3988624
3.4525414 1.7056037 -1.4015985
3.4239852 1.7415999 -1.3981783
3.4341707 1.7339733 -1.4002305
3.4106343 1.7716827 -1.3988624
3.4138982 1.7612906 -1.3981783
3.425494 1.7551771 -1.4009145
3.4100363 1.7971482 -1.4029666
3.415354 1.7870215 -1.4029666
3.3905942 1.8256494 -1.4015985
3.4012868 1.8176433 -1.4036506
3.398679 1.8025467 -1.4002305
3.3856173 1.8466662 -1.4036506
3.39604 1.8392968 -1.4057027
3.3723309 1.8785561 -1.4050188
3.3762441 1.8676344 -1.4043348
3.3817711 1.8576076 -1.4043348
3.3617861 1.8973618 -1.4050188
3.3687105 1.8888862 -1.4057027
3.3561625 1.9337792 -1.409807
3.3602548 1.9228786 -1.4091231
3.3630104 1.9104564 -1.4077549
3.3469326 1.9534411 -1.410491
3.3540015 1.9450291 -1.4111751
3.3362179 1.9864197 -1.4132272
3.3372452 1.9736413 -1.4111751
3.3440201 1.9658506 -1.4118592
3.3243713 2.0061824 -1.4132272
3.3299613 1.9968902 -1.4132272
3.3122516 2.0369136 -1.4152793
3.3175015 2.0139031 -1.4125432
3.3017011 2.0575275 -1.4159634
3.312227 2.0512688 -1.4180156
3.288744 2.0887113 -1.4180156
3.2834382 2.0724974 -1.4132272
3.2955821 2.0673141 -1.4159634
3.2731302 2.1061563 -1.4166474
3.277782 2.0954225 -1.4159634
3.2612853 2.1381929 -1.4193835
3.2668715 2.129648 -1.4193835
3.2684445 2.1168797 -1.4173315
3.2485404 2.1575067 -1.4193835
3.2584398 2.1493609 -1.4207517
3.2679753 1.6037964 -1.4214921
3.2676954 1.5916446 -1.4193097
3.264133 1.636694 -1.4258569
3.2656384 1.625344 -1.424402
3.2671065 1.6139961 -1.422947
3.2596333 1.6580027 -1.4280394
3.2578864 1.6449642 -1.4251295
3.2469888 1.6866757 -1.428767
3.2450633 1.6741856 -1.4258569
3.2663066 1.6736118 -1.4331318
3.2286818 1.7015713 -1.4251295
3.2403197 1.6954379 -1.4280394
3.2216091 1.7346601 -1.428767
3.2270441 1.7245281 -1.428767
3.2340915 1.715255 -1.4294944
3.2187192 1.7556325 -1.4316767
3.2239146 1.7460737 -1.4316767
3.2062209 1.7860246 -1.4331318
3.2082443 1.7747022 -1.4316767
3.2118635 1.7642773 -1.4309493
3.1945732 1.8029882 -1.4324043
3.1979704 1.7931497 -1.4316767
3.1832399 1.8341435 -1.4345868
3.1919024 1.8265402 -1.4360417
3.1943848 1.8146638 -1.4345868
3.1809912 1.8565893 -1.4382242
3.1678703 1.8861837 -1.439679
3.1654356 1.8720334 -1.4360417
3.1783555 1.8684611 -1.439679
3.1518362 1.9020615 -1.4374967
3.1587338 1.8942096 -1.4382242
3.1405528 1.9313253 -1.439679
3.142755 1.9206039 -1.4382242
3.1500309 1.9122394 -1.4389516
3.132199 1.9518987 -1.441134
3.1360533 1.9421641 -1.4404066
3.1216824 1.982609 -1.444044
3.1256311 1.9728899 -1.4433165
3.134285 1.9661329 -1.4447714
3.1161292 2.005131 -1.4469539
3.118926 1.9938688 -1.4454989
3.100425 2.0327284 -1.4476814
3.1057358 2.0246048 -1.4476814
3.1101663 2.0143676 -1.4469539
3.088309 2.0510895 -1.4476814
3.0978472 2.0434296 -1.4491363
3.0814555 2.0847347 -1.4527737
3.079535 2.0709238 -1.4491363
3.0806603 2.0592093 -1.4469539
3.0695951 -1.5197557 -1.4306901
3.0785594 -1.5015137 -1.4306901
3.0771394 -1.5128063 -1.4322317
3.0854931 -1.4829584 -1.4299192
3.0827403 -1.492911 -1.4306901
3.0927985 -1.4547012 -1.4276067
3.0870559 -1.4625421 -1.4268358
3.1030452 1.5228549 -1.4437945
3.0932083 1.5509894 -1.4453361
3.0957386 1.5293381 -1.4422528
3.0908027 1.5721276 -1.4484195
3.0987487 1.5646127 -1.4499612
3.0870719 1.6036055 -1.4530445
3.0816972 1.5899022 -1.4484195
3.0844834 1.5804479 -1.4476486
3.0758686 1.6210361 -1.4522737
3.0823007 1.6127574 -1.4530445
3.067817 1.6518515 -1.4553572
3.0713649 1.6413333 -1.4545863
3.0813968 1.6342708 -1.4568988
3.0588353 1.6684247 -1.4553572
3.0653951 1.6602194 -1.4561279
3.0487008 1.698278 -1.4576696
3.0472658 1.6856537 -1.4545863
3.0603416 1.6810464 -1.4584405
3.0391679 1.715279 -1.4576696
3.0439458 1.7067858 -1.4576696
3.0285761 1.7450281 -1.4599822
3.0321393 1.7351172 -1.4592113
3.0359704 1.7246718 -1.4584405
3.015595 1.7600555 -1.4584405
3.0220954 1.7525524 -1.4592113
3.0096352 1.7919689 -1.4630656
3.0117626 1.7811515 -1.4615239
3.0180058 1.7741964 -1.4622947
3.0021083 1.8117042 -1.4646072
3.0024085 1.8004655 -1.4622947
2.9868264 1.8367893 -1.4646072
2.9903698 1.8274779 -1.4638364
2.9973555 1.8195571 -1.4646072
2.9805729 1.8574096 -1.4669198
2.9841785 1.8481078 -1.466149
2.9661372 1.8838208 -1.4676906
