# .PCD v0.7 - Point Cloud Data file format
VERSION 0.7
FIELDS x y z
SIZE 4 4 4
TYPE F F F
COUNT 1 1 1
WIDTH 1509
HEIGHT 1
VIEWPOINT 0 0 0 1 0 0 0
POINTS 1509
DATA ascii
-3.6966934 3.3543091 -2.5072827
-4.1851039 3.7974832 -2.516073
-4.4855332 4.0700874 -2.5299163
-6.657517 6.040904 -2.5777607
-7.2946682 6.6190429 -2.5786061
-8.1674833 7.4110184 -2.6131589
-3.9046376 3.5654225 -2.5028126
-5.1988578 4.7472076 -2.5624149
-5.5841794 5.0990543 -2.5551736
-6.0779352 5.5499153 -2.5682764
-6.6342487 6.057899 -2.576107
-7.2766972 6.6445351 -2.5796194
-3.0843396 2.8342099 -2.4841516
-3.2623639 2.9977968 -2.489362
-4.1544337 3.817523 -2.5120056
-4.4625897 4.1006885 -2.5314581
-4.7985225 4.4093781 -2.5447183
-6.0590625 5.5676923 -2.5676806
-7.2515106 6.6634369 -2.5780997
-8.1135912 7.455606 -2.6108532
-3.085027 2.8537664 -2.4923129
-3.4585774 3.1993148 -2.5051005
-3.6695731 3.3944936 -2.5108736
-4.1377287 3.8275554 -2.5095651
-5.1653337 4.7781291 -2.5610468
-5.5511346 5.1350093 -2.5551736
-6.0377636 5.5851593 -2.566489
-6.5935788 6.0993099 -2.5755558
-7.2265353 6.6848183 -2.5770867
-8.0902538 7.4837909 -2.6113143
-9.0818224 8.4010286 -2.6296673
-3.0717695 2.8604643 -2.4892523
-3.456995 3.2191904 -2.5116732
-3.6582961 3.4066439 -2.5108736
-5.1453338 4.7913895 -2.5589948
-5.5382357 5.1572633 -2.5570946
-6.5761304 6.1237621 -2.5766582
-8.0625439 7.507926 -2.6103923
-3.6475754 3.4181201 -2.5108736
-3.8688157 3.6254432 -2.5096579
-4.1102586 3.8516977 -2.5079384
-4.7551975 4.4560661 -2.5447183
-7.1789794 6.7273769 -2.575567
-8.0332355 7.5278955 -2.6085477
-9.014534 8.447463 -2.6259251
-3.2259133 3.0420721 -2.4913216
-3.4212835 3.2263086 -2.5004058
-4.4012017 4.1503825 -2.5268328
-4.739821 4.4697037 -2.5439909
-5.1164951 4.8249121 -2.5596788
-5.5098586 5.195858 -2.5590153
-5.9838729 5.642859 -2.566489
-6.5543094 6.1807866 -2.5832734
-7.1535883 6.7459135 -2.5740478
-8.0010538 7.545083 -2.6057811
-8.9808359 8.4690285 -2.6238458
-3.0346916 2.8798151 -2.481091
-3.6182485 3.4335899 -2.5054874
-4.394834 4.1705422 -2.5306873
-4.7311597 4.4897032 -2.5469007
-5.1013107 4.8409638 -2.5596788
-5.4880095 5.2079268 -2.5564542
-5.9578056 5.6537466 -2.5629144
-6.5306735 6.1973782 -2.5816195
-7.9815431 7.5742021 -2.6071644
-8.9598589 8.5025902 -2.625509
-3.0251248 2.889863 -2.481091
-3.2024176 3.0592287 -2.4883823
-3.8220716 3.651176 -2.5019569
-4.3756413 4.1799936 -2.5276036
-4.7122035 4.5015078 -2.5447183
-5.0865884 4.8591523 -2.5603628
-5.4652281 5.2208624 -2.5538933
-6.4920139 6.2017379 -2.5744529
-7.1126719 6.7946444 -2.5750606
-3.807338 3.6613235 -2.5002458
-4.0535865 3.8981285 -2.5038707
-4.3617568 4.1944799 -2.5276036
-4.690537 4.5106516 -2.541081
-5.9201784 5.6931353 -2.5629144
-6.4644861 6.216568 -2.5716968
-7.0859194 6.8141689 -2.5735412
-7.9185109 7.61483 -2.6030145
-8.8976326 8.5564013 -2.6238458
-3.0002191 2.9033558 -2.4759898
-3.1813428 3.0786319 -2.4874027
-3.3755226 3.2665424 -2.4975889
-3.584517 3.4687893 -2.5054874
-3.8101056 3.6870947 -2.5096579
-4.0465717 3.9159265 -2.5071249
-5.0483513 4.8853631 -2.5569425
-5.8926592 5.7024121 -2.5587442
-6.4421597 6.2341719 -2.5705941
-7.0714283 6.8431244 -2.5760739
-7.8889542 7.6342559 -2.6011698
-3.1741543 3.0910432 -2.489362
-5.0154762 4.8841524 -2.5480499
-5.4121475 5.2704377 -2.5526128
-6.415657 6.2476716 -2.5678377
-8.8408937 8.6094065 -2.623014
-3.1694086 3.1058824 -2.4932806
-3.785573 3.7096968 -2.5088024
-4.0140576 3.9336019 -2.502244
-4.320713 4.2341108 -2.5268328
-4.6411638 4.5481386 -2.5374434
-5.0148711 4.9143558 -2.5555744
-5.3915019 5.2834373 -2.5506921
-5.8717136 5.7540236 -2.5652974
-7.0200005 6.8792949 -2.5730348
-7.8505607 7.6932073 -2.6043978
-8.8096085 8.6330328 -2.6217666
-2.9692514 2.9301238 -2.4739497
-4.0003033 3.9475889 -2.502244
-5.3676329 5.2969003 -2.5481312
-5.846158 5.7691193 -2.5629144
-6.3754492 6.2914357 -2.5683892
-6.9931912 6.9010382 -2.5720215
-7.8167338 7.7137284 -2.602092
-8.7766371 8.6609821 -2.620935
-3.3336315 3.309283 -2.4975889
-3.5400321 3.5141761 -2.5054874
-3.7589724 3.7315173 -2.5070908
-4.2932811 4.2619233 -2.5268328
-4.9763637 4.9400167 -2.5521543
-5.3586164 5.3194776 -2.5513322
-5.8208847 5.7783694 -2.5593398
-6.3594823 6.3130336 -2.5694916
-7.7882881 7.7314034 -2.6002476
-8.7536774 8.6897411 -2.6217666
-9.9689665 9.8961544 -2.6465642
-2.9592996 2.9572341 -2.481091
-3.3226388 3.3203197 -2.4975889
-3.5346801 3.532213 -2.5099759
-3.9805899 3.9778116 -2.5054979
-4.2778187 4.2748332 -2.526062
-5.3342452 5.3305221 -2.5481312
-6.9401116 6.9352679 -2.5684762
-8.715126 8.7090425 -2.618856
-9.9402647 9.9333267 -2.6476753
-2.9536343 2.9701753 -2.4841516
-3.3258891 3.3445151 -2.5079174
-3.5084438 3.5280921 -2.4992034
-4.5741558 4.5997725 -2.5330787
-6.3158717 6.3512421 -2.5683892
-6.9251132 6.9638958 -2.5710087
-7.7368269 7.7801552 -2.5997865
-9.9090109 9.9645042 -2.6476753
-3.1093261 3.1464496 -2.4854434
-3.5099039 3.5518098 -2.5081804
-3.7178967 3.7622859 -2.5036683
-4.24828 4.2990017 -2.5245204
-4.5596814 4.6141214 -2.5330787
-4.9207873 4.9795384 -2.5480499
-5.2953196 5.358542 -2.5455701
-5.7678318 5.8366961 -2.5605316
-6.2945337 6.3696866 -2.5678377
-6.9004793 6.9828668 -2.5699956
-7.7041368 7.7961197 -2.5970199
-8.6616077 8.7650213 -2.6192718
-9.8762732 9.9941893 -2.6473048
-2.9326651 2.9884715 -2.4831312
-3.1044309 3.1635056 -2.4903417
-3.3011603 3.3639789 -2.5060394
-3.9530401 4.0282631 -2.5128191
-4.2422967 4.3230243 -2.5299163
-4.5435486 4.6300087 -2.5330787
-4.9139071 5.0074148 -2.5535223
-5.7394004 5.8486166 -2.556957
-7.6577945 7.8035159 -2.590564
-9.82481 10.011768 -2.6428614
-3.2733147 3.3566339 -2.4928942
-3.482527 3.5711715 -2.5054874
-4.2196746 4.3270826 -2.5245204
-5.7183313 5.8638868 -2.5557656
-6.2427545 6.4016585 -2.5639787
-6.8486123 7.0229378 -2.5679696
-7.6495438 7.8442564 -2.5960975
-8.5991879 8.8180723 -2.6180243
-9.787817 10.036958 -2.6413801
-2.9090414 3.0018973 -2.4790504
-3.085706 3.1842012 -2.4913216
-3.9212937 4.0464606 -2.5087516
-4.2060604 4.3403172 -2.5245204
-4.5143671 4.6584649 -2.5330787
-4.8745003 5.0300932 -2.5494182
-5.2426944 5.4100399 -2.5455701
-6.8305559 7.0485859 -2.5694892
-8.5646372 8.8380184 -2.6159451
-9.7548714 10.066245 -2.6410098
-3.4544353 3.5884356 -2.5018966
-3.667078 3.8093269 -2.5028126
-3.904052 4.0554934 -2.5063112
-4.4937263 4.6680417 -2.5301688
-4.8630061 5.0516462 -2.5521543
-5.6710763 5.8910618 -2.5515952
-6.2026191 6.443224 -2.5645301
-7.5852332 7.8794703 -2.5914865
-8.5379944 8.8691902 -2.6167767
-9.7323408 10.109866 -2.6439722
-3.4419098 3.5979781 -2.5009987
-5.66574 5.9226441 -2.5575528
-6.1836767 6.464066 -2.5650814
-7.5590982 7.901854 -2.5910254
-8.5100908 8.8959684 -2.6167767
-9.7141199 10.154592 -2.6476753
-3.23699 3.4063087 -2.4985278
-3.6361766 3.8263757 -2.4985342
-3.885334 4.0885658 -2.5111921
-5.1869583 5.4582748 -2.5442898
-5.6355476 5.9303288 -2.5527868
-6.1542606 6.4761744 -2.5617738
-6.7586737 7.1122026 -2.5684762
-8.4765015 8.9198856 -2.6155293
-9.679038 10.185324 -2.6473048
-3.4222844 3.624028 -2.5036919
-4.1433196 4.387568 -2.5206661
-4.4448733 4.7068982 -2.5279863
-4.8065491 5.0898948 -2.5480499
-5.1853957 5.4910746 -2.5519726
-6.1365247 6.4982724 -2.5628762
-6.7376246 7.1348071 -2.5689826
-7.5065751 7.9490876 -2.590564
-8.452466 8.950738 -2.6167767
-9.6483412 10.217111 -2.6476753
-2.8639984 3.0519822 -2.482111
-3.0329885 3.2320642 -2.4903417
-4.1257262 4.3965259 -2.5183537
-4.7892485 5.1035995 -2.5473661
-5.595561 5.9628358 -2.5515952
-6.7138524 7.1545281 -2.5684762
-7.477571 7.9683747 -2.5891807
-9.6323338 10.26457 -2.6521187
-2.852689 3.0602047 -2.481091
-3.018687 3.2382779 -2.4874027
-3.3951542 3.6421309 -2.5009987
-3.6079068 3.8703599 -2.504524
-3.8459077 4.1256738 -2.5111921
-5.1407838 5.5147443 -2.5474908
-6.6874518 7.173923 -2.5674632
-7.4444699 7.9860096 -2.5868752
-8.3758135 8.9851027 -2.6109552
-9.6103048 10.309395 -2.6554515
-4.1010113 4.4271388 -2.5206661
-5.1208577 5.5280876 -2.5462105
-5.5621285 6.0044498 -2.5539782
-6.0686374 6.5512385 -2.5606713
-9.58321 10.345304 -2.6569326
-2.8328681 3.0785623 -2.481091
-3.0000741 3.2602699 -2.489362
-3.1890545 3.4656405 -2.5041614
-3.5779424 3.8882568 -2.5011013
-4.3786669 4.7584281 -2.5250764
-4.7416849 5.1529303 -2.5487339
-6.0468807 6.5713258 -2.5606713
-6.6449165 7.2212291 -2.5689826
-7.388792 8.0296202 -2.5854919
-8.3123178 9.0332432 -2.6092918
-9.5528469 10.381363 -2.6580436
-2.9839334 3.2632451 -2.4844635
-3.1793427 3.4769456 -2.5051005
-3.3672731 3.6824672 -2.5063851
-3.5608296 3.8941419 -2.4976788
-4.3611813 4.7694106 -2.5236213
-4.7280092 5.1705751 -2.5501022
-5.5142198 6.0303788 -2.549808
-6.027503 6.5917082 -2.5612226
-6.6248088 7.244925 -2.5699956
-8.2838974 9.0593128 -2.6092918
-2.8285081 3.1128521 -2.4943533
-3.1672161 3.4856095 -2.5041614
-3.3460727 3.6824462 -2.4992034
-3.7930324 4.1743379 -2.5111921
-4.0583258 4.4663005 -2.5206661
-4.7167974 5.1909671 -2.5528383
-5.0624604 5.5713792 -2.5436497
-5.4901114 6.0420208 -2.5474248
-6.6007147 7.2642708 -2.5694892
-7.3368855 8.0744467 -2.5850308
-9.4861078 10.439726 -2.6576734
-3.336237 3.6961751 -2.5009987
-3.7754958 4.1828246 -2.5087516
-4.0533843 4.4906936 -2.5268328
-5.9770808 6.6219325 -2.557915
-8.2226 9.1097155 -2.6084602
-9.4527521 10.472586 -2.6580436
-2.8014553 3.1233695 -2.4882321
-3.5244915 3.9294896 -2.4985342
-4.0281663 4.4910412 -2.5198953
-4.3139539 4.8096685 -2.5228939
-5.0263762 5.6039553 -2.5436497
-5.4509788 6.0773487 -2.5474248
-5.957531 6.6421089 -2.5584662
-6.5510812 7.3038635 -2.5684762
-7.2832899 8.1202106 -2.5845697
-8.1874094 9.1282215 -2.6063812
-3.1306486 3.5137615 -2.5022836
-3.5210631 3.9519529 -2.5053797
-4.3054175 4.832293 -2.5272589
-4.6583362 5.2283998 -2.5487339
-5.0027242 5.6149325 -2.5410886
-5.4422278 6.1082201 -2.5527868
-7.247261 8.1341438 -2.5813417
-8.1570959 9.1553202 -2.6063812
-9.3705463 10.517266 -2.6539702
-2.9311531 3.3107355 -2.4844635
-3.2982345 3.7253537 -2.4992034
-3.7400153 4.2243447 -2.5120056
-3.9954114 4.5128145 -2.5175829
-4.28404 4.8388205 -2.5236213
-4.6393957 5.2401948 -2.5473661
-5.4192142 6.1209989 -2.5509994
-5.9298086 6.6977148 -2.5650814
-6.4999323 7.3416696 -2.5669568
-7.2242513 8.1597872 -2.5822639
-8.1334801 9.1867599 -2.6080444
-9.3283386 10.536352 -2.6513782
-3.1043937 3.5299273 -2.4994669
-3.4894996 3.9678211 -2.5011013
-4.9763703 5.6585045 -2.5462105
-5.3837562 6.1217318 -2.5438504
-6.4717178 7.3588257 -2.5654371
-9.30373 10.579035 -2.6543405
-2.7540913 3.1515176 -2.482111
-2.90627 3.3256564 -2.4815247
-3.0886405 3.5343437 -2.4957111
-3.2835166 3.7573411 -2.5063851
-3.481775 3.9842091 -2.504524
-4.9510884 5.6655502 -2.5423691
-5.8839016 6.7329721 -2.5639787
-7.1598811 8.1930809 -2.5781138
-8.0701227 9.2346745 -2.6067972
-3.6945004 4.2545338 -2.5087516
-3.9567478 4.5565338 -2.5206661
-4.2239571 4.8642483 -2.515619
-4.5851831 5.280231 -2.5453138
-5.8601995 6.7485213 -2.5628762
-6.4266214 7.4008045 -2.5659437
-7.1328297 8.2140646 -2.5776527
-8.0346575 9.2525959 -2.604718
-9.2229013 10.62096 -2.6502674
-2.8870106 3.3469956 -2.4834838
-4.2126703 4.8838716 -2.5185289
-4.5639653 5.2911377 -2.5432618
-4.9181104 5.7017093 -2.5442898
-5.3284845 6.1774673 -2.5456378
-7.1080937 8.2406206 -2.5785751
-7.9962635 9.2703018 -2.6022229
-9.2056017 10.672323 -2.6554515
-3.0522733 3.561147 -2.4938331
-3.4468992 4.021565 -2.5070908
-3.9248393 4.5791869 -2.5191245
-4.8952432 5.7113762 -2.541729
-5.3040824 6.1883774 -2.5432546
-5.8190007 6.7891421 -2.5639787
-6.3812146 7.4450879 -2.5669568
-7.0847049 8.2658644 -2.5794973
-7.9607372 9.2879477 -2.6001439
-9.1643562 10.692234 -2.6532297
-2.7064679 3.1789656 -2.4759898
-4.5345745 5.3262243 -2.5459979
-5.2773423 6.1986656 -2.5402761
-5.7889762 6.7996206 -2.5606713
-6.3602509 7.4706292 -2.5684762
-7.0458989 8.2759781 -2.5753472
-2.8468668 3.3652358 -2.4766262
-3.0223694 3.5726945 -2.4881995
-3.2204556 3.806849 -2.5045898
-3.6498652 4.3144474 -2.516073
-4.8570342 5.7414227 -2.5410886
-6.3429999 7.4979587 -2.5710087
-7.0173521 8.2950993 -2.574425
-7.9081721 9.3481236 -2.6026387
-9.0976562 10.754193 -2.6539702
-3.4011581 4.046164 -2.5019569
-3.6374698 4.3272905 -2.5168865
-4.154902 4.9428496 -2.5214388
-4.4986033 5.3517318 -2.5446298
-5.2358365 6.2287765 -2.5390844
-5.7399564 6.8284984 -2.557915
-6.3231497 7.5222902 -2.5725284
-7.8762503 9.3699255 -2.6018071
-9.044858 10.760152 -2.6484158
-2.8217232 3.3795345 -2.4736872
-3.1900773 3.8207068 -2.5001011
-3.6207569 4.336525 -2.5152595
-3.8689189 4.6337447 -2.5214369
-4.1349044 4.9523115 -2.5192564
-4.4808302 5.3666215 -2.5446298
-4.8271427 5.781395 -2.54493
-5.2114797 6.2417092 -2.5372972
-5.708653 6.8371658 -2.5540559
-6.299408 7.5447044 -2.5730348
-6.95366 8.3282919 -2.5707359
-7.8526554 9.4050055 -2.6043022
-9.0028257 10.782546 -2.6465642
-2.9811707 3.5933876 -2.4825656
-3.8531651 4.6444559 -2.5206661
-4.1205168 4.966711 -2.519984
-4.4699492 5.3879037 -2.5480499
-5.1991606 6.2668667 -2.5408719
-5.6871467 6.8550658 -2.5540559
-6.2744408 7.5629673 -2.5725284
-6.9212499 8.3426065 -2.5684304
-7.8143287 9.4190884 -2.6013913
-8.9475746 10.785059 -2.640269
-2.6561708 3.2233398 -2.4770103
-3.1653376 3.8412282 -2.5001011
-3.5822194 4.347126 -2.5079384
-3.8447826 4.6657543 -2.5252914
-4.450861 5.4012475 -2.5473661
-5.1832047 6.2899675 -2.5432546
-5.6766071 6.8887258 -2.5595686
-6.8960195 8.3685179 -2.5693526
-7.7768273 9.4374037 -2.5993123
-8.905508 10.80709 -2.6384175
-2.9623783 3.6180296 -2.4863217
-3.1453297 3.8414729 -2.4938171
-3.5812783 4.373908 -2.5168865
-3.8312757 4.6792364 -2.526062
-4.766623 5.8216009 -2.5423691
-5.659811 6.9124742 -2.5617738
-6.2230182 7.6003337 -2.5715151
-7.7632537 9.4814634 -2.604718
-8.8615541 10.822846 -2.6354549
-2.6358671 3.239964 -2.4770103
-3.1433978 3.8638122 -2.5018966
-3.3357532 4.1002526 -2.5019569
-3.5629082 4.3794675 -2.5136325
-4.0750022 5.008925 -2.5214388
-4.4120941 5.4232731 -2.5446298
-4.7423329 5.8291965 -2.5391679
-5.155633 6.3372188 -2.5492122
-6.1930065 7.6123409 -2.5689826
-6.8531318 8.4237556 -2.5730417
-7.7297258 9.5012512 -2.6034703
-8.8275118 10.850631 -2.6354549
-2.6229451 3.2460115 -2.4749699
-2.763809 3.420337 -2.4707482
-3.1316898 3.8756061 -2.5027943
-3.3153198 4.1028566 -2.4968231
-3.7940192 4.6952682 -2.5214369
-4.3917217 5.4349518 -2.5432618
-5.1261888 6.3438873 -2.545042
-6.1628628 7.6268182 -2.5669568
-6.8263807 8.4479513 -2.5735028
-7.6920266 9.519227 -2.6013913
-8.7877722 10.87526 -2.6343441
-2.7574167 3.4344406 -2.4746668
-2.9241953 3.642168 -2.4835048
-3.1150239 3.8798501 -2.4992034
-3.5311205 4.3981104 -2.5111921
-4.0425706 5.0351357 -2.5214388
-4.3769798 5.4516521 -2.5446298
-5.1014528 6.3540034 -2.542659
-5.5811605 6.9514933 -2.5562608
-6.1316061 7.6370888 -2.5639176
-7.6535106 9.5326633 -2.5984805
-8.7523346 10.90128 -2.6339738
-3.7624686 4.7182283 -2.5206661
-4.6768618 5.8649001 -2.5346863
-5.5580759 6.9699645 -2.5562608
-6.1062446 7.6573815 -2.5639176
-6.7716832 8.4918575 -2.5735028
-8.7124567 10.925636 -2.6328628
-2.7319322 3.4480758 -2.4717276
-2.8940344 3.6526713 -2.4778712
-3.2813964 4.1415758 -2.5011013
-3.5003757 4.4179578 -2.5095651
-4.0099707 5.0611367 -2.5214388
-4.6654749 5.888474 -2.5385277
-5.0638714 6.3913054 -2.5444462
-6.7425566 8.5100384 -2.5725806
-7.6015115 9.5941572 -2.6018071
-8.6744308 10.948331 -2.631752
-2.7081449 3.4402006 -2.4599717
-3.0765319 3.9081686 -2.4983058
-3.9882903 5.06639 -2.5178015
-4.6410937 5.8956571 -2.5353265
-5.5201211 7.0123 -2.5590174
-6.7290306 8.5479975 -2.5776527
-7.5737543 9.6210632 -2.6026387
-8.6387796 10.973982 -2.6313818
-2.5736666 3.2917736 -2.4780304
-2.7085345 3.4642727 -2.4707482
-3.7135944 4.7497654 -2.5183537
-4.3073626 5.5092077 -2.5453138
-5.0213156 6.4223685 -2.5438504
-5.4920983 7.0245094 -2.556812
-6.0324597 7.7156429 -2.5639176
-6.6874604 8.5534029 -2.5725806
-7.5442147 9.64921 -2.6034703
-8.615654 11.019603 -2.6354549
-2.5553517 3.2907789 -2.4708891
-2.6948936 3.4704807 -2.4687889
-2.8614457 3.6849661 -2.4806881
-3.2507403 4.1862993 -2.5088024
-3.4514265 4.4447427 -2.5054979
-3.9603138 5.1000867 -2.5214388
-4.2902236 5.5249443 -2.5459979
-4.6053767 5.9307981 -2.5372472
-6.0009084 7.727962 -2.5613852
-6.6614485 8.5786047 -2.5735028
-7.5265765 9.6927156 -2.6084602
-8.5694237 11.035692 -2.6324925
-2.5445244 3.2969849 -2.4698687
-2.863445 3.710216 -2.491955
-3.0388734 3.9375217 -2.4983058
-3.681422 4.770083 -2.5168118
-4.2680688 5.5302119 -2.5425777
-4.5831265 5.9384375 -2.5346863
-5.4525518 7.0649672 -2.5590174
-7.4822426 9.6948729 -2.6030545
-8.5342369 11.057961 -2.631752
-2.6751559 3.4901125 -2.4707482
-2.8425326 3.7084787 -2.4844437
-3.2122755 4.1908598 -2.4993901
-3.6633394 4.779335 -2.5152702
-4.254281 5.5503006 -2.5453138
-4.9582744 6.4687572 -2.5432546
-5.9557648 7.7701221 -2.5629048
-6.6097827 8.6233797 -2.574425
-7.4536252 9.7242889 -2.6043022
-8.5130663 11.106478 -2.6365659
-3.0068877 3.9485309 -2.4929194
-3.4149179 4.4843411 -2.5095651
-3.9052999 5.1282916 -2.5170741
-4.5400934 5.9618788 -2.5321252
-4.9321456 6.476707 -2.5402761
-5.4021587 7.0939102 -2.556812
-5.9289813 7.7857141 -2.5618916
-6.5861979 8.6487455 -2.5758085
-7.4147439 9.7367611 -2.6013913
-8.4709902 11.123783 -2.6343441
-2.5105624 3.3207624 -2.4688487
-2.8189394 3.728658 -2.4853826
-3.392632 4.4874907 -2.5046844
-3.632674 4.8049979 -2.516041
-4.2117095 5.5708981 -2.5418937
-4.9072032 6.490839 -2.5390844
-5.3785214 7.1142597 -2.5573637
-5.9029331 7.8079076 -2.562398
-6.5524449 8.6670275 -2.574425
-8.4202538 11.137609 -2.6306412
-2.6367285 3.5105145 -2.4668293
-2.8050911 3.7346711 -2.4835048
-3.1733336 4.2249455 -2.5011013
-3.6153445 4.8134346 -2.5144994
-5.8725667 7.8186784 -2.5598657
-6.5216794 8.6829004 -2.5730417
-7.3523531 9.7888517 -2.6022229
-8.3805027 11.15772 -2.6291599
-3.596895 4.8203306 -2.5121868
-3.8561058 5.1677089 -2.5178015
-4.1777496 5.5987558 -2.5425777
-4.4850073 6.0105228 -2.5340459
-4.8663259 6.5215421 -2.5390844
-5.3314185 7.1448298 -2.5562608
-5.8514471 7.8417387 -2.5613852
-6.4885521 8.6955462 -2.5707359
-7.3215666 9.8119001 -2.6022229
-8.3501129 11.190292 -2.6306412
-2.4781299 3.3428943 -2.4678285
-3.8387411 5.1783023 -2.5170741
-4.1545424 5.6043053 -2.5391574
-5.3100886 7.1630888 -2.556812
-5.8313899 7.8663025 -2.5634112
-6.4588819 8.7127638 -2.569814
-8.3149128 11.216473 -2.6306412
-2.4680495 3.3524795 -2.4688487
-2.7596884 3.7486279 -2.4750543
-2.9424016 3.9968166 -2.4929194
-3.3351824 4.5303512 -2.5046844
-4.1381617 5.6210799 -2.5405257
-4.8229747 6.5512967 -2.5384886
-5.2840242 7.1775641 -2.5557096
-5.806417 7.887157 -2.5639176
-7.2592058 9.8605556 -2.6026387
-8.2799988 11.247151 -2.6313818
-2.5911696 3.544276 -2.4668293
-2.75037 3.7620349 -2.4778712
-3.1174359 4.2641182 -2.5002458
-3.5517874 4.8582368 -2.5137286
-3.8032131 5.2021437 -2.5163467
-4.4271641 6.0556016 -2.5346863
-4.8000979 6.5657115 -2.5378931
-5.7768059 7.9016809 -2.562398
-6.3986568 8.7522659 -2.5688915
-7.2160788 9.8703594 -2.5988965
-8.2507792 11.285652 -2.6339738
-2.4433174 3.3641708 -2.4657881
-2.9144313 4.0128412 -2.4911242
-3.3112273 4.5591841 -2.5087516
-3.5375924 4.8708634 -2.5144994
-3.7846625 5.211051 -2.5148916
-4.0984654 5.6431217 -2.5384736
-4.4014378 6.0602808 -2.5308447
-4.7760825 6.5761237 -2.5361056
-5.2375665 7.2115345 -2.5557096
-7.1861854 9.8945618 -2.5993123
-2.5657899 3.5562434 -2.4638903
-2.7225466 3.7735121 -2.4741154
-2.904948 4.0263247 -2.4938171
-4.0829172 5.6590166 -2.5398414
-4.3901391 6.0848336 -2.5353265
-5.730444 7.9425263 -2.5639176
-6.3435421 8.7922945 -2.5688915
-8.1969604 11.361175 -2.6395285
-2.419538 3.3770828 -2.4637477
-3.7498467 5.2338681 -2.5141642
-5.1852884 7.2373934 -2.5529532
-7.1323924 9.9550743 -2.6030545
-8.1592369 11.388297 -2.6395285
-3.0618067 4.3020177 -2.4993901
-3.4928119 4.9076056 -2.516041
-3.7323043 5.2441063 -2.5134368
-4.0517335 5.6929231 -2.5432618
-4.3551455 6.1192346 -2.5378876
-4.7160563 6.6263356 -2.5378931
-6.2888846 8.8362513 -2.569814
-7.0965433 9.9710598 -2.6013913
-8.1256952 11.417078 -2.640269
-2.6984305 3.8167765 -2.4853826
-2.8661635 4.0540252 -2.4938171
-3.0430596 4.304235 -2.4951117
-3.2518167 4.5995097 -2.5079384
-4.0327449 5.7040887 -2.5425777
-4.6941152 6.6395588 -2.5372972
-5.1508112 7.2855296 -2.5584662
-5.6539354 7.9971704 -2.5639176
-6.270083 8.8686762 -2.5735028
-7.064055 9.9917049 -2.6009755
-8.0909252 11.444154 -2.6406393
-3.0350022 4.3231788 -2.5002458
-3.2449458 4.6222305 -2.514446
-3.4674118 4.9391198 -2.5206661
-3.7005045 5.2711468 -2.5148916
-4.3253393 6.1611862 -2.5436497
-4.6863341 6.6754017 -2.545042
-5.6218276 8.0079556 -2.5613852
-6.2395225 8.887825 -2.5730417
-7.0308847 10.015074 -2.6009755
-8.0484152 11.464484 -2.6391582
-2.5123467 3.6027045 -2.467809
-3.6860561 5.2858033 -2.5163467
-4.3124628 6.1840701 -2.5474908
-4.6620607 6.6853938 -2.5432546
-5.1014557 7.315486 -2.5573637
-5.5944262 8.0224056 -2.5603721
-6.2071137 8.9009991 -2.571197
-7.0027413 10.041928 -2.6022229
-8.0146027 11.492938 -2.6398988
-2.3679407 3.419739 -2.4668083
-3.011137 4.3486323 -2.5036683
-3.2191889 4.6490974 -2.5177
-3.9864321 5.7571363 -2.5487339
-5.0738864 7.32762 -2.5557096
-6.1786728 8.9231329 -2.5716581
-6.9749732 10.073136 -2.6043022
-7.9798064 11.5243 -2.6410098
-3.4219301 4.9752188 -2.5222077
-4.279954 6.2227182 -2.5519726
-5.5348282 8.0472078 -2.5568266
-6.9377465 10.086942 -2.6022229
-7.9424453 11.547695 -2.6406393
-2.3496878 3.4406414 -2.4708891
-2.4819319 3.6342864 -2.4727075
-2.6321421 3.8542385 -2.4816267
-2.8040173 4.1059151 -2.4974079
-3.6331682 5.3200383 -2.515619
-4.5954213 6.7290626 -2.542659
-5.5026579 8.0575275 -2.5542941
-6.1209202 8.9628477 -2.5716581
-3.92782 5.7904716 -2.5466821
-4.2173462 6.2172966 -2.5385277
-4.5678296 6.7339864 -2.5390844
-5.0054722 7.3791685 -2.556812
-5.4751463 8.0715714 -2.5532811
-6.0872712 8.973978 -2.5693526
-6.8636823 10.118579 -2.5988965
-7.8710222 11.603621 -2.6417503
-2.4545152 3.644454 -2.4687889
-2.6091704 3.8740854 -2.4835048
-2.7704554 4.1135607 -2.4911242
-3.1496909 4.6766481 -2.5103788
-3.5935333 5.3356633 -2.5119817
-3.9043956 5.7972307 -2.5439458
-4.1871781 6.2171044 -2.5327654
-4.539073 6.7395968 -2.5355098
-4.9788256 7.3925395 -2.5557096
-6.0585651 8.9957323 -2.569814
-6.83883 10.154266 -2.6022229
-7.8324976 11.62966 -2.6417503
-2.5901144 3.8719881 -2.476932
-2.9308748 4.3813944 -2.4951117
-3.132952 4.6834817 -2.5087516
-3.348156 5.0051923 -2.5152702
-3.8861647 5.8094668 -2.5439458
-4.166573 6.2286525 -2.5321252
-4.5136328 6.7474751 -2.5331271
-4.9566469 7.4097414 -2.5562608
-5.4239836 8.1083679 -2.5537877
-6.0335212 9.0195723 -2.571197
-6.8003712 10.165943 -2.5997281
-2.3028047 3.4660006 -2.4678285
-2.7425761 4.1279097 -2.4893289
-2.9120929 4.3830528 -2.4908335
-3.556844 5.3534818 -2.5097992
-3.8554127 5.8028641 -2.5357373
-4.1490803 6.2448692 -2.5334058
-4.4955797 6.7663932 -2.5349143
-4.9312139 7.4220753 -2.5551584
-6.0029993 9.0352421 -2.5702751
-6.7608194 10.175853 -2.5968173
-7.7657967 11.688466 -2.6439722
-2.4155781 3.6620247 -2.46487
-3.0915756 4.6868396 -2.4998035
-3.3086503 5.0159254 -2.5098743
-4.4657593 6.7701068 -2.5307438
-4.9002237 7.4287567 -2.5518508
-5.3704433 8.1416111 -2.5532811
-5.9740777 9.0567226 -2.5707359
-6.728117 10.199849 -2.5972331
-7.7237492 11.70923 -2.6428614
-2.7197814 4.1515131 -2.4929194
-3.292877 5.0262942 -2.5098743
-3.5232222 5.3778968 -2.5105269
-4.095171 6.250927 -2.5250828
-4.4486556 6.7904911 -2.5331271
-5.3384795 8.1487312 -2.5502422
-5.9455976 9.0754452 -2.5707359
-6.6928258 10.216024 -2.5959857
-7.6858506 11.731792 -2.6424909
-2.3963249 3.6829765 -2.4687889
-2.5434613 3.9091144 -2.479749
-2.7086737 4.163034 -2.4947147
-3.0580802 4.7000461 -2.4965496
-3.2720368 5.0288815 -2.5060201
-4.075511 6.2637625 -2.5250828
-4.4200096 6.7932324 -2.5289569
-4.8513541 7.4561772 -2.5507483
-5.3117957 8.1638422 -2.5497355
-5.9138699 9.0891867 -2.5693526
-6.6606951 10.237002 -2.5959857
-7.6553841 11.765766 -2.6447127
-2.7045517 4.187005 -2.5036919
-2.8572054 4.4233332 -2.4925447
-3.0414872 4.7086258 -2.4957361
-3.2583477 5.0443544 -2.5083327
-3.4874086 5.3989716 -2.5097992
-3.7760696 5.8458567 -2.5330012
-5.8826432 9.1071119 -2.5688915
-6.6277757 10.260676 -2.5964015
-3.2414863 5.0530138 -2.5075619
-3.4684169 5.4067659 -2.5083444
-3.757684 5.8576918 -2.5330012
-4.0319071 6.2851663 -2.5231621
-4.810369 7.4986773 -2.5546072
-5.2600098 8.1996031 -2.5502422
-5.8540006 9.1255493 -2.5688915
-6.5902238 10.273216 -2.5943224
-7.5696931 11.800069 -2.6413801
-2.2398505 3.5172143 -2.4729292
-2.672657 4.196846 -2.4992034
-2.8276103 4.4401674 -2.491689
-3.7352114 5.8653641 -2.5309491
-4.353405 6.8361073 -2.5289569
-4.7854776 7.5145869 -2.5546072
-6.5655794 10.309862 -2.5980647
-7.5389695 11.838367 -2.6443424
-2.6546831 4.1976686 -2.4947147
-2.9902887 4.7283387 -2.4908552
-3.2038577 5.0660405 -2.5037076
-3.4344273 5.4306245 -2.5090718
-3.9922502 6.3126717 -2.5238023
-4.7597928 7.5263343 -2.5535047
-5.2079864 8.2350321 -2.5507486
-5.8053541 9.1796083 -2.5735028
-6.5300226 10.325478 -2.5968173
-7.497541 11.855348 -2.6428614
-2.2198341 3.5359759 -2.4759898
-2.342721 3.7317224 -2.4756465
-2.4871895 3.9618466 -2.4872606
-2.642648 4.2094765 -2.4965103
-3.1909642 5.08289 -2.5067909
-3.4154079 5.4404063 -2.5083444
-3.6962569 5.8877711 -2.5302649
-4.3081527 6.8624606 -2.5283611
-4.7388949 7.5485902 -2.5557096
-5.77074 9.1922178 -2.5716581
-6.4988637 10.352046 -2.5980647
-2.205075 3.5370927 -2.4719093
-2.3282192 3.7346244 -2.4727075
-2.4747314 3.9696403 -2.4872606
-2.7867708 4.4701729 -2.4934003
-2.959692 4.7475505 -2.4908552
-3.6787372 5.9009485 -2.5309491
-4.2875838 6.8775806 -2.5289569
-4.7151585 7.5634398 -2.5557096
-5.1557217 8.270134 -2.551255
-5.7449241 9.2152548 -2.5730417
-6.4601021 10.36245 -2.5955696
-7.4229054 11.906853 -2.6436019
-3.160907 5.1059775 -2.5083327
-3.3821375 5.4633427 -2.5090718
-3.6582005 5.9092813 -2.5295811
-3.9274786 6.3442602 -2.5212414
-4.2679644 6.8942647 -2.5301483
-5.707747 9.2200203 -2.5693526
-6.4285426 10.384359 -2.5959857
-7.3823557 11.925102 -2.6424909
-2.3004019 3.7436397 -2.4687889
-2.4434977 3.9765117 -2.4816267
-2.6002476 4.2316046 -2.4947147
-3.132364 5.0975623 -2.4990826
-3.3669288 5.4792895 -2.5112543
-4.2410808 6.9018717 -2.527765
-5.1001816 8.2999601 -2.5502422
-6.3981695 10.412286 -2.5976489
-7.3458586 11.954541 -2.6436019
-2.5862 4.2402048 -2.4947147
-2.7420049 4.4956546 -2.4925447
-3.8863015 6.3717866 -2.5218816
-4.2281103 6.9321985 -2.5337229
-4.6410079 7.6091652 -2.5557096
-5.0685978 8.3102207 -2.5482161
-5.6454587 9.2560129 -2.5688915
-6.3615665 10.430108 -2.5968173
-7.2969613 11.963735 -2.640269
-2.8999114 4.786437 -2.4916689
-3.1021857 5.1203003 -2.5006242
-3.3305037 5.4971495 -2.5097992
-3.5983868 5.9393029 -2.5275288
-4.2045565 6.9398136 -2.5319355
-4.6124344 7.6130347 -2.552402
-7.2675452 11.995418 -2.6424909
-2.2634621 3.7640545 -2.467809
-2.5613508 4.2594323 -2.4965103
-3.0937498 5.144793 -2.5075619
-3.8432634 6.3912063 -2.5199609
-4.1815214 6.9537172 -2.5319355
-5.0202756 8.3485346 -2.5502422
-5.5881968 9.2929668 -2.5693526
-6.2989354 10.474899 -2.5980647
-7.2348194 12.03124 -2.645083
-2.1394122 3.5832036 -2.4749699
-2.5442929 4.2613196 -2.4929194
-2.8642604 4.7972188 -2.4876013
-3.07095 5.143394 -2.5021658
-3.293983 5.5169415 -2.5090718
-3.561887 5.965642 -2.528897
-3.828995 6.4130087 -2.5238023
-4.5612082 7.639359 -2.5512996
-5.5559835 9.3054628 -2.5679693
-6.2670012 10.496314 -2.5984805
-7.1929593 12.047158 -2.6436019
-2.2497742 3.7965934 -2.4795651
-2.3811352 4.018271 -2.4835048
-2.6845064 4.5302234 -2.4925447
-3.0670471 5.1757774 -2.5129578
-3.5449574 5.9822721 -2.5309491
-4.1316628 6.9723635 -2.5289569
-4.9652715 8.3791151 -2.5497355
-5.5290613 9.3305349 -2.569814
-7.1549697 12.074327 -2.6443424
-2.1103678 3.5884168 -2.4688487
-3.2563763 5.5370612 -2.5083444
-3.5212901 5.987514 -2.5282128
-4.109488 6.9876719 -2.5295525
-6.2150998 10.568001 -2.6059654
-2.2164178 3.7959852 -2.4697685
-2.6561067 4.549026 -2.4934003
-3.0270455 5.1843204 -2.5075619
-3.5005655 5.9953022 -2.5268447
-3.7584879 6.4370375 -2.5186806
-4.0913639 7.007143 -2.5319355
-4.4940772 7.696857 -2.5557096
-4.9139838 8.4160175 -2.551255
-5.4775224 9.3811712 -2.5739639
-6.1818657 10.587476 -2.6059654
-7.0837846 12.132163 -2.6469345
-2.3415682 4.0394144 -2.4825656
-2.4944227 4.303102 -2.4983058
-2.8093948 4.8464575 -2.4941092
-3.2224557 5.5590243 -2.5090718
-3.4873698 6.0160251 -2.5309491
-3.737298 6.4471731 -2.5180402
-4.0655017 7.0133543 -2.5295525
-4.467948 7.7076101 -2.5546072
-4.8836408 8.4247169 -2.5492291
-5.4470501 9.3966484 -2.5735028
-6.1466141 10.603458 -2.6051338
-7.0426812 12.149255 -2.6458237
-2.0807436 3.615603 -2.4739497
-2.1873047 3.8007689 -2.4638903
-2.4782162 4.3062711 -2.4956126
-2.6265702 4.5640583 -2.4925447
-2.9944115 5.2032375 -2.5075619
-3.2068324 5.5723505 -2.5105269
-3.4647012 6.0204363 -2.5282128
-4.8590775 8.4433737 -2.5502422
-5.4204116 9.4187756 -2.5748861
-6.1161962 10.627805 -2.6063812
-7.0025139 12.167914 -2.645083
-2.7744725 4.8602233 -2.4916689
-2.9698267 5.2024384 -2.5021658
-3.1892097 5.5867457 -2.5119817
-3.443666 6.0324931 -2.5282128
-3.6944561 6.4718184 -2.5180402
-4.4176836 7.7387433 -2.5551584
-4.8334126 8.4670029 -2.552268
-6.0751834 10.642293 -2.604718
-2.0550234 3.6263289 -2.4719093
-2.5971355 4.5829496 -2.4934003
-3.9995856 7.0577364 -2.5313396
-5.3607078 9.4595957 -2.5762694
-6.0455799 10.668133 -2.6063812
-6.9352312 12.238026 -2.6502674
-2.1534727 3.8280442 -2.467809
-2.7411921 4.8727827 -2.4892285
-3.4038515 6.0507355 -2.5268447
-3.9811356 7.0769238 -2.5337229
-4.3736854 7.7747259 -2.557915
-4.780117 8.4972048 -2.552268
-5.3290515 9.4729986 -2.5753472
-6.8977098 12.261468 -2.6506376
-2.0321977 3.6391695 -2.4719093
-2.2832959 4.0888252 -2.4900775
-2.5638819 4.5912862 -2.4891222
-2.7223082 4.8749886 -2.4859746
-2.9251633 5.2382531 -2.5060201
-3.3921573 6.0745249 -2.5323172
-3.6406884 6.5195837 -2.5231621
-4.751514 8.5088015 -2.551255
-5.2992668 9.4896927 -2.5753472
-5.9841528 10.716156 -2.608876
-6.8562827 12.277927 -2.6495266
-2.0207539 3.6455367 -2.4719093
-2.2635891 4.0836229 -2.4825656
-2.4130857 4.353322 -2.5001011
-2.9140592 5.257102 -2.5106452
-3.1205604 5.6296401 -2.5134368
-3.3675883 6.0752907 -2.5282128
-3.9365911 7.1017985 -2.5337229
-4.3247485 7.8020535 -2.557915
-6.8176737 12.299409 -2.6495266
-2.3986371 4.3612995 -2.5001011
-2.8930538 5.2602682 -2.5075619
-3.1009779 5.6383243 -2.5127094
-3.5930321 6.5329971 -2.5193207
-3.9130204 7.1148129 -2.5337229
-4.6955347 8.537612 -2.5507486
-5.2435017 9.5339479 -2.5781138
-5.9289675 10.78029 -2.6151135
-6.7834821 12.334002 -2.6521187
-2.1046901 3.8570673 -2.4687889
-2.5240815 4.6256466 -2.494256
-2.8817828 5.2811718 -2.5129578
-3.0822647 5.6485758 -2.5127094
-3.326324 6.0958405 -2.5275288
-3.5749795 6.5515285 -2.5218816
-4.2738328 7.8322506 -2.5584662
-5.2118587 9.5512829 -2.5781138
-5.9053698 10.822215 -2.6205194
-6.7481947 12.36678 -2.6543405
-1.9850273 3.6651125 -2.4719093
-2.2244105 4.1071043 -2.4835048
-2.3670185 4.3704123 -2.4965103
-2.6652102 4.9209876 -2.4916689
-2.8590238 5.278841 -2.5075619
-3.5534756 6.5610623 -2.5212414
-3.8679023 7.141613 -2.5343184
-4.2473726 7.8422585 -2.5573637
-4.6421456 8.5711594 -2.5517614
-5.8983564 10.8906 -2.6325781
-6.7083707 12.386193 -2.6539702
-2.0754604 3.8610005 -2.4629107
-2.3592012 4.3888464 -2.5027943
-2.4906881 4.6334529 -2.4899776
-3.0475945 5.6694717 -2.5134368
-3.2906263 6.1215863 -2.5295811
-3.8427372 7.148684 -2.5325313
-4.2218051 7.853868 -2.556812
-4.6115336 8.5788841 -2.5497355
-5.1517429 9.5838413 -2.5781138
-5.8604112 10.902184 -2.6309147
-2.1953485 4.1167092 -2.4806881
-3.2658846 6.1241741 -2.5261607
-3.508357 6.5788574 -2.5193207
-3.8279917 7.1782351 -2.5384886
-4.1975451 7.8712201 -2.557915
-4.5839677 8.5958376 -2.5502422
-6.6356421 12.44313 -2.6569326
-2.4632843 4.6562614 -2.4934003
-2.6127152 4.9387259 -2.4876013
-3.2455595 6.1349697 -2.5261607
-3.800597 7.1841378 -2.5361056
-4.1723208 7.886795 -2.5584662
-4.5581532 8.6161203 -2.5517614
-5.0907969 9.6229591 -2.5794973
-5.7916346 10.947728 -2.6325781
-6.5879116 12.452904 -2.6543405
-2.3136373 4.4049625 -2.4992034
-2.5971994 4.9448395 -2.486788
-2.7915354 5.3148384 -2.5075619
-3.4695945 6.6058035 -2.5212414
-3.7774868 7.1920033 -2.5349143
-4.1471114 7.8957362 -2.5573637
-4.5343657 8.6330347 -2.5527747
-5.0658393 9.6449137 -2.5813417
-5.7591233 10.964866 -2.6325781
-1.9259232 3.696512 -2.4719093
-2.0278385 3.8921225 -2.4658499
-2.4364848 4.6764565 -2.4959674
-2.7713382 5.3191557 -2.5052493
-2.9818649 5.7232289 -2.519984
-3.4467957 6.6155915 -2.5206013
-3.7527356 7.202796 -2.5343184
-5.0320315 9.6582069 -2.5804195
-6.5177107 12.509739 -2.6576734
-2.0125177 3.8941791 -2.4629107
-2.1428077 4.1462874 -2.4816267
-2.2802687 4.412271 -2.4947147
-2.4176428 4.6780872 -2.4925447
-2.56183 4.9570866 -2.4843476
-2.9568808 5.7215014 -2.5148916
-3.1882429 6.1691818 -2.5275288
-4.0964189 7.9264836 -2.5584662
-4.4858918 8.6801052 -2.5578396
-5.0053344 9.685215 -2.5831861
-5.6907659 11.011511 -2.6346571
-6.4825039 12.543508 -2.6602654
-1.9027969 3.7104032 -2.4729292
-3.7052722 7.2251816 -2.5337229
-4.0723753 7.9410229 -2.5590174
-4.4577193 8.6924334 -2.557333
-4.9731083 9.6974287 -2.5822639
-5.6525755 11.02237 -2.6329939
-6.4475517 12.572554 -2.662117
-1.988911 3.9102015 -2.46487
-2.2501092 4.423718 -2.4929194
-2.3849261 4.6887674 -2.4899776
-2.5339091 4.9816685 -2.488415
-2.9215629 5.7437968 -2.5163467
-3.3879862 6.6607852 -2.5250828
-3.6864872 7.2476387 -2.5372972
-4.0468926 7.9561968 -2.5595686
-4.4323802 8.7140656 -2.5593593
-4.9391603 9.7103958 -2.5813417
-5.6159949 11.041054 -2.6329939
-6.4085002 12.59912 -2.663228
-1.8756959 3.7164702 -2.4688487
-2.7032404 5.3561521 -2.5060201
-3.1288776 6.199502 -2.5275288
-4.0236082 7.9723058 -2.5606713
-4.4032364 8.724494 -2.558346
-4.9112582 9.7310791 -2.582725
-5.582159 11.06039 -2.6334097
-6.377739 12.636738 -2.6669309
-2.0905998 4.17483 -2.4825656
-2.3529902 4.6988111 -2.4874108
-3.3409777 6.6717758 -2.5212414
-3.9985445 7.9849062 -2.5606713
-4.3758078 8.7382832 -2.558346
-4.8789225 9.742979 -2.5818031
-5.5465107 11.076122 -2.6329939
-6.3476915 12.676043 -2.6710043
-2.3398061 4.7114458 -2.4899776
-2.6702371 5.3768034 -2.5075619
-3.0871055 6.2162118 -2.5261607
-3.3179903 6.6811228 -2.5206013
-3.6141958 7.2775636 -2.5355098
-3.9746065 8.0032883 -2.562325
-4.3442225 8.7475491 -2.5568266
-4.8500462 9.766078 -2.5836473
-5.5106173 11.096208 -2.6334097
-6.3161077 12.718147 -2.6754479
-1.9381599 3.9336603 -2.4638903
-2.1935651 4.4520268 -2.4929194
-2.4775009 5.0282989 -2.4957361
-2.8497925 5.783896 -2.5178015
-3.0692241 6.2292509 -2.5275288
-3.5938478 7.2940192 -2.5372972
-4.3175759 8.762887 -2.557333
-4.8236432 9.7899942 -2.585953
-5.4601693 11.081878 -2.6259251
-6.2735176 12.732636 -2.6743369
-2.3077471 4.7232084 -2.4882665
-3.2772746 6.7075157 -2.522522
-3.9194679 8.0218763 -2.5601199
-4.2876463 8.7754183 -2.5568266
-4.7911539 9.8059349 -2.585953
-5.4122281 11.077071 -2.6205194
-6.2304006 12.751604 -2.6739666
-1.8187827 3.7523003 -2.4729292
-2.041898 4.2126055 -2.4891384
-2.4457748 5.0458374 -2.4965496
-3.028933 6.2489414 -2.5275288
-3.2578368 6.721189 -2.5238023
-4.2634287 8.7958088 -2.5588524
-4.7594728 9.8191891 -2.5854919
-5.385078 11.109864 -2.6242616
-6.1945915 12.779959 -2.6758182
-1.9040895 3.9599409 -2.4687889
-2.0217676 4.2046766 -2.4806881
-2.1507289 4.472878 -2.4929194
-2.4243693 5.0419688 -2.4908552
-2.5999191 5.4070601 -2.5060201
-2.7949486 5.8126636 -2.5185289
-3.007659 6.2550383 -2.5261607
-3.2326019 6.7228527 -2.5206013
-3.5228393 7.3264604 -2.5367017
-3.867321 8.0428801 -2.5590174
-5.3509989 11.128489 -2.6246774
-6.1458979 12.781644 -2.6721153
-1.7900716 3.7546508 -2.4668083
-2.4044898 5.0433846 -2.4876013
-2.9893246 6.2700677 -2.5282128
-3.2151806 6.7437978 -2.5244424
-3.4977007 7.3363795 -2.5361056
-3.8422811 8.0591326 -2.5601199
-4.2181964 8.8476095 -2.5659437
-4.7035007 9.8655291 -2.5896418
-5.3191142 11.15677 -2.6271725
-6.105166 12.805503 -2.6728559
-2.1248555 4.4931359 -2.4965103
-2.2535653 4.7653008 -2.4951117
-2.5688918 5.4320779 -2.5098743
-2.7597427 5.8356438 -2.5207114
-3.1915498 6.7487259 -2.522522
-4.1936903 8.8678131 -2.5679696
-4.6691585 9.8732195 -2.5877974
-5.3041124 11.215868 -2.6371522
-6.0623879 12.819287 -2.6717448
-1.7665195 3.7676888 -2.4678285
-5.8151674 12.402773 -2.2505572
-1.9843242 4.2322292 -2.4853826
-2.9479768 6.2875381 -2.5275288
-3.1683495 6.7575555 -2.5218816
-3.4567387 7.3726416 -2.5408719
-3.7950575 8.0942183 -2.5634274
-4.1626191 8.8781662 -2.5669568
-4.6421771 9.9009819 -2.5910254
-5.2685533 11.236938 -2.6379838
-6.0323625 12.866013 -2.6772995
-1.7546732 3.7732203 -2.4678285
-5.740387 12.344032 -2.2366147
-2.0980566 4.5116262 -2.4992034
-2.219696 4.7731977 -2.491689
-2.3575082 5.0695462 -2.4892285
-2.7204287 5.8499651 -2.5192564
-2.9321699 6.3052897 -2.5309491
-4.1363368 8.8947096 -2.5679696
-4.6028404 9.897872 -2.5864141
-5.2332225 11.253435 -2.6379838
-5.9852791 12.870645 -2.6743369
-5.6817441 12.318995 -2.2288332
-1.8388011 3.986836 -2.4668293
-1.9569535 4.2430105 -2.4844437
-2.2084761 4.7883544 -2.4959674
-2.3446319 5.0835633 -2.4924822
-2.5197225 5.4631901 -2.5129578
-3.1282084 6.7824917 -2.5238023
-3.4063482 7.3855467 -2.5378931
-3.7441247 8.1179037 -2.5634274
-4.1091843 8.9094162 -2.5684762
-4.574985 9.9193516 -2.5882585
-5.9604578 12.923293 -2.6813726
-1.7338483 3.7922945 -2.4729292
-5.6228104 12.29828 -2.2216997
-1.9414046 4.2462645 -2.4825656
-2.1918344 4.7940078 -2.4951117
-2.888268 6.3172555 -2.5282128
-3.7179852 8.1320229 -2.5639787
-4.0764012 8.9159555 -2.5664501
-4.5436864 9.9380064 -2.5891807
-5.1742754 11.317239 -2.6450529
-5.9649715 13.046659 -2.7028503
-1.7190833 3.791456 -2.4688487
-1.8115767 3.9954515 -2.46487
-1.925137 4.2459097 -2.4788101
-2.1819868 4.8123946 -2.5011013
-2.3102453 5.0952702 -2.4908552
-2.4866762 5.4843903 -2.5152702
-2.6649187 5.8775063 -2.519984
-2.8684056 6.3262987 -2.5282128
-3.3601599 7.4108677 -2.5390844
-3.6940053 8.1471672 -2.5650814
-4.0459714 8.9234314 -2.5649307
-4.5156546 9.9593229 -2.5910254
-5.1419234 11.340566 -2.6467161
-5.9320679 13.083238 -2.7065535
-1.7135533 3.8128262 -2.4790504
-5.5545998 12.359535 -2.226239
-2.0352192 4.5285645 -2.4938171
-2.463181 5.4808221 -2.5098743
-2.6431239 5.8812127 -2.5178015
-2.8481829 6.3374896 -2.528897
-3.0617697 6.8127413 -2.5238023
-3.6661816 8.1576176 -2.5645301
-4.0179462 8.9403286 -2.5659437
-4.4834032 9.976017 -2.5914865
-5.1074986 11.364692 -2.6483793
-5.8886523 13.102836 -2.7065535
-1.6931996 3.801203 -2.4678285
-5.5055499 12.359861 -2.2229967
-1.7843285 4.0057855 -2.4638903
-1.9048384 4.2763281 -2.4891384
-2.1463442 4.8185043 -2.4968231
-2.2816057 5.1221638 -2.4965496
-2.4449909 5.4889612 -2.5098743
-2.8286791 6.3503337 -2.5302649
-3.0360754 6.8159351 -2.5212414
-3.638325 8.1679745 -2.5639787
-3.9882743 8.9536047 -2.5659437
-4.4526696 9.9961634 -2.5928698
-5.068985 11.379781 -2.6479635
-5.8299708 13.088181 -2.6995177
-5.4674931 12.378901 -2.223321
-1.890682 4.2806759 -2.4881995
-2.2662418 5.1309776 -2.4973631
-2.8049195 6.3505931 -2.5268447
-3.2883399 7.4451008 -2.53968
-3.6173086 8.1899157 -2.5672865
-3.9616909 8.9696293 -2.5669568
-4.4220319 10.011882 -2.5933309
-5.0308399 11.39028 -2.6467161
-5.7975616 13.126206 -2.7035909
-1.6685941 3.8101907 -2.4668083
-5.4269953 12.392401 -2.2226725
-1.7563281 4.0105286 -2.4599717
-2.1138527 4.8269267 -2.494256
-2.4126778 5.5092859 -2.5121868
-2.7864635 6.3628159 -2.5282128
-2.9992728 6.8487601 -2.5263631
-3.2657018 7.4571438 -2.5402761
-3.587707 8.1924343 -2.5645301
-3.931942 8.9784861 -2.5659437
-4.3905582 10.025724 -2.5933309
-4.9879708 11.3899 -2.6429737
-5.7523561 13.135353 -2.7017395
-5.391963 12.41844 -2.2242937
-1.7513576 4.0336199 -2.4707482
-1.8595282 4.282752 -2.4825656
-1.9809157 4.5623245 -2.4983058
-2.2310472 5.1384115 -2.4941092
-2.570946 5.9212461 -2.5207114
-3.2430167 7.4691181 -2.5408719
-3.9067955 8.9978933 -2.5679696
-4.3621378 10.04661 -2.5951753
-4.9498229 11.40013 -2.641726
-5.7079268 13.14615 -2.7002583
-5.3562088 12.448944 -2.2265632
-1.9657743 4.5688686 -2.4983058
-2.0847785 4.845459 -2.4968231
-2.3748589 5.5196667 -2.5098743
-2.5535035 5.9348741 -2.5228939
-2.7445703 6.3789525 -2.5275288
-2.957226 6.873209 -2.5282838
-3.2167187 7.4763241 -2.53968
-3.5347235 8.2154331 -2.5645301
-3.8769336 9.0108004 -2.5679696
-4.3272567 10.057446 -2.5942531
-4.9081225 11.407499 -2.6396472
-5.6650743 13.166813 -2.7006285
-2.1990683 5.1581378 -2.4965496
-2.3565431 5.5275111 -2.5098743
-2.7241399 6.3897471 -2.5282128
-3.5097239 8.2324142 -2.5661838
-3.8485506 9.0271664 -2.5689826
-4.296936 10.0789 -2.5960975
-4.8625975 11.405716 -2.6354887
-5.6175294 13.176486 -2.6987772
-1.6246027 3.844099 -2.4749699
-1.7098148 4.0457263 -2.467809
-1.935535 4.5798206 -2.4974079
-2.1842761 5.1683865 -2.4981766
-2.5180283 5.9581032 -2.5258038
-2.7025909 6.3948112 -2.5268447
-3.4816005 8.2380867 -2.5645301
-3.8209274 9.0409946 -2.5694892
-4.2660108 10.094142 -2.5965586
-4.817605 11.399311 -2.6304989
-1.6984444 4.0542936 -2.4697685
-1.8047448 4.3080392 -2.4835048
-1.9252818 4.5957689 -2.5027943
-2.0437605 4.8785853 -2.5036683
-2.3189163 5.5353994 -2.5067909
-2.892581 6.9047732 -2.5295644
-3.1499724 7.5191822 -2.5438504
-4.7727003 11.392736 -2.625509
-1.5971186 3.8462873 -2.4698687
-1.9074062 4.5935426 -2.4983058
-2.0221834 4.8699565 -2.4959674
-2.1517587 5.1820087 -2.4981766
-2.3022213 5.5443625 -2.5075619
-2.4783988 5.9686446 -2.5236213
-2.6616364 6.4099298 -2.5261607
-3.1234043 7.5219898 -2.5414674
-3.4282949 8.2562475 -2.5634274
-3.7633026 9.063036 -2.5689826
-4.2092195 10.136923 -2.6007087
-1.8914815 4.5981894 -2.4974079
-2.1345613 5.189116 -2.4981766
-2.4571733 5.9733858 -2.5221665
-2.6382189 6.4135075 -2.5241086
-2.852253 6.9338241 -2.5334058
-3.7346976 9.0790453 -2.5699956
-4.1800203 10.161625 -2.6034756
-1.6607103 4.0755448 -2.4727075
-2.2626131 5.5526733 -2.5044785
-3.0799315 7.5584517 -2.5468292
-3.3807168 8.2966089 -2.5689404
-1.7515998 4.3375382 -2.4872606
-1.8617504 4.6103077 -2.4974079
-1.9758439 4.8928409 -2.4976788
-2.5974541 6.4321523 -2.5247927
-2.8081293 6.9538536 -2.5340459
-3.3560772 8.3107529 -2.5700428
-3.6759939 9.102972 -2.5699956
-1.5498681 3.8729815 -2.4739497
-1.7399335 4.3479381 -2.4900775
-2.0853336 5.211062 -2.4989901
-2.229054 5.5702057 -2.5060201
-2.4004164 5.9984255 -2.5228939
-2.5737438 6.4315553 -2.5213723
-2.7869747 6.9643998 -2.5346863
-3.0316734 7.5758801 -2.5462334
-3.3299532 8.3212547 -2.5700428
-1.6190128 4.082911 -2.467809
-1.8320872 4.6202531 -2.4965103
-1.9497262 4.9169216 -2.5036683
-2.5562952 6.4465985 -2.5241086
-2.7636828 6.9695997 -2.5334058
-3.0071521 7.5835929 -2.5456378
-1.5248231 3.8829103 -2.4739497
-1.6022767 4.0801435 -2.4629107
-1.9287838 4.9115825 -2.4976788
-2.9840789 7.598856 -2.5474248
-1.6993955 4.3677316 -2.491955
-1.8009163 4.6286569 -2.4947147
-2.037864 5.2376518 -2.502244
-2.1754797 5.5913472 -2.5060201
-2.3440747 6.0246649 -2.524349
-2.5139298 6.4612207 -2.5234246
-2.7186172 6.9873018 -2.5334058
-1.4997183 3.8926756 -2.4739497
-1.8983279 4.9273086 -2.4993901
-2.4931669 6.4712749 -2.5241086
-1.4838002 3.8877251 -2.4678285
-1.6680062 4.3703656 -2.4872606
-1.882193 4.9315596 -2.4985342
-2.1399848 5.6070032 -2.5067909
-2.4728227 6.4790759 -2.5241086
-1.871806 4.9509754 -2.5053797
-1.9887857 5.2603898 -2.5038707
-2.1223605 5.6136985 -2.5067909
-2.2887709 6.0538588 -2.5272589
-1.4603958 3.9039245 -2.4719093
-1.5376763 4.1105108 -2.4658499
-1.6408422 4.3862934 -2.4900775
-2.2656682 6.0565758 -2.5250764
-1.7286569 4.665657 -2.4992034
-1.8376722 4.9598904 -2.5036683
-1.9557579 5.278604 -2.5063112
-2.0857232 5.6293817 -2.5075619
-1.6097568 4.3846312 -2.4835048
-2.0671043 5.6303477 -2.5052493
-1.4270614 3.9272165 -2.4780304
-1.7011385 4.6814661 -2.5018966
-1.8052372 4.9679413 -2.5019569
-1.9213046 5.287354 -2.5046844
-1.4906241 4.1426339 -2.4736872
-1.5814084 4.3949351 -2.4835048
-1.6821882 4.6750154 -2.4956126
-1.7896219 4.9735875 -2.5019569
-1.477464 4.1491961 -2.4746668
-1.3851802 3.9312413 -2.4719093
-1.4671721 4.1639404 -2.4805448
-1.5545725 4.4119887 -2.4872606
-1.7565963 4.9853473 -2.5019569
-1.5383786 4.4101815 -2.4835048
-1.6393592 4.6996698 -2.5001011
-1.358206 3.9333632 -2.4678285
-1.4364274 4.1598921 -2.4727075
-1.4988018 4.4331093 -2.4881995
-1.2980875 3.9644732 -2.4739497
-1.3683646 4.1791058 -2.4707482
-1.2714111 3.9694958 -2.4719093
-3.5808604 2.2453983 -2.5065954
-3.549262 2.2567775 -2.4943533
-3.5301697 2.2611122 -2.4861917
-3.5125692 2.3134747 -2.4943533
-3.5005772 2.3222573 -2.4912927
-3.7152605 2.4646766 -2.5050368
-3.4946952 2.3341978 -2.4923129
-3.4724276 2.3518939 -2.4872122
-3.6870999 2.4972925 -2.5020978
-3.4620073 2.394527 -2.4963937
-3.6711197 2.5391614 -2.5079761
-3.657846 2.5460577 -2.5040572
-3.4356256 2.4083323 -2.4882321
-3.4280431 2.4191134 -2.4882321
-3.6356299 2.5656037 -2.5001383
-3.8869433 2.7429516 -2.5295131
-3.4186001 2.4294715 -2.4872122
-3.8663104 2.7476423 -2.5220015
-3.8470535 2.7715206 -2.5210626
-3.4062617 2.4702549 -2.4953735
-3.6050143 2.6143923 -2.5020978
-3.8283203 2.776336 -2.5144899
-3.6010087 2.6287882 -2.5050368
-3.3787169 2.4846389 -2.4872122
-3.3750429 2.498311 -2.4902728
-3.5764871 2.6474261 -2.5001383
-3.7935603 2.8266034 -2.5154288
-4.0385609 3.009155 -2.5297253
-3.5583875 2.6687999 -2.4991589
-3.7818363 2.8363869 -2.5135508
-4.0205097 3.0153928 -2.524339
-3.3495319 2.529557 -2.4892523
-3.5453434 2.6774333 -2.4962196
-3.7704709 2.8660929 -2.5182457
-3.9952626 3.0369666 -2.5207481
-3.5418258 2.7108688 -2.5060165
-3.7525315 2.8721404 -2.5126119
-3.9993615 3.0610609 -2.5297253
-4.2273917 3.2567058 -2.5259156
-3.3156731 2.5709724 -2.4882321
-3.5164554 2.7266588 -2.5001383
-3.7330158 2.8945799 -2.5116732
-4.2185688 3.2710774 -2.5267711
-3.3098414 2.5840709 -2.4902728
-3.9740198 3.1026106 -2.5324185
-3.5010359 2.7520764 -2.5020978
-3.7206779 2.9247313 -2.5163677
-3.2876887 2.6011207 -2.4861917
-3.4978428 2.7673881 -2.5060165
-3.7031622 2.9298308 -2.5107341
-3.9356809 3.1137927 -2.5207481
-4.1778908 3.3054218 -2.5216372
-3.2889204 2.6189387 -2.4933331
-3.9300725 3.1294825 -2.5234413
-4.1773839 3.3264146 -2.527627
-3.6993198 2.9658353 -2.5210626
-3.9113069 3.1357903 -2.5180552
-3.4656887 2.796458 -2.5020978
-3.6789899 2.9685702 -2.5135508
-4.4349718 3.5785706 -2.5372233
-3.2591617 2.6477041 -2.4902728
-4.1432705 3.3659437 -2.5267711
-3.2481644 2.6557515 -2.4882321
-3.450258 2.8209865 -2.5040572
-4.1326761 3.3789427 -2.5267711
-3.2340271 2.6621354 -2.4841516
-3.4368455 2.8290882 -2.5011182
-4.1242394 3.3949265 -2.5284824
-3.2335954 2.6788678 -2.4902728
-3.4212265 2.8343105 -2.4962196
-3.6294646 3.0068252 -2.5060394
-3.8687108 3.2050283 -2.5234413
-3.6335645 3.0295205 -2.5154288
-3.8545053 3.2137322 -2.5207481
-3.2070057 2.691951 -2.4831312
-3.4041877 2.857465 -2.4971993
-3.8534091 3.23454 -2.5270321
-4.087307 3.4308734 -2.5259156
-3.6017838 3.0426657 -2.5069783
-3.1934867 2.7159472 -2.4861917
-3.5970552 3.0591681 -2.5107341
-3.8161047 3.2454619 -2.5162599
-3.600842 3.0819376 -2.5201235
-3.8045309 3.2562733 -2.515362
-3.7942829 3.2682085 -2.515362
-4.0336766 3.4744105 -2.5199258
-3.1776657 2.7554936 -2.4943533
-3.363138 2.9163246 -2.5011182
-3.560853 3.0877721 -2.5060394
-3.3573892 2.9309013 -2.5040572
-4.0010118 3.4927649 -2.5139363
-3.7613935 3.3033009 -2.5144644
-4.0042148 3.5165491 -2.5224929
-3.1420481 2.7778935 -2.4872122
-3.9789879 3.5178347 -2.5139363
-3.3191965 2.9531412 -2.4962196
-3.743989 3.3310859 -2.5171576
-3.127888 2.8015695 -2.4902728
-3.7329223 3.3434832 -2.5171576
-3.1249676 2.8176861 -2.4953735
-3.5095489 3.1644511 -2.5126119
-3.7165046 3.3510568 -2.5135667
-3.1046343 2.8170857 -2.4861917
-3.494359 3.1707146 -2.5088563
-3.9372385 3.5725749 -2.5165033
-3.1059322 2.8361046 -2.4943533
-3.4843814 3.1816761 -2.5088563
-3.6953769 3.3743412 -2.5135667
-3.48347 3.2009721 -2.5154288
-3.6715968 3.3738422 -2.5045898
-3.9133823 3.59602 -2.5156474
-3.2536857 3.0097823 -2.4903417
-3.9054179 3.6126592 -2.5182145
-3.251343 3.0276849 -2.4962196
-3.8854783 3.6181984 -2.5130806
-3.0552366 2.8630431 -2.4831312
-3.2354536 3.0319235 -2.4913216
-3.4404213 3.2239976 -2.5069783
-3.0537364 2.8797076 -2.4892523
-3.6407208 3.4332404 -2.5135667
-3.8705597 3.649981 -2.5182145
