# .PCD v0.7 - Point Cloud Data file format
VERSION 0.7
FIELDS x y z
SIZE 4 4 4
TYPE F F F
COUNT 1 1 1
WIDTH 1
HEIGHT 155
VIEWPOINT 0 0 0 1 0 0 0
POINTS 155
DATA ascii
1.5041034 -24.591887 -1.7228454
1.4255691 -24.574579 -1.7213107
1.345705 -24.609053 -1.7234035
1.2698233 -24.641054 -1.7253566
1.1925964 -24.648907 -1.7256356
1.1118381 -24.67465 -1.7271702
1.0310054 -24.702122 -1.7288444
0.95370603 -24.713215 -1.7294025
0.87705082 -24.744003 -1.7313557
0.79885888 -24.732677 -1.7303791
0.71776772 -24.767099 -1.7326113
0.6356833 -24.771338 -1.7327509
0.31753531 -24.921118 -1.7427957
0.23924363 -24.921993 -1.7427957
0.16075334 -24.892696 -1.740703
0.078379847 -24.948956 -1.7446095
-1.0902972e-06 -24.943094 -1.7441909
-0.082825832 -24.976873 -1.7465626
-0.16126491 -24.972498 -1.7462835
-0.32327521 -25.028791 -1.7503294
-0.40209424 -25.039621 -1.7511666
-0.48543957 -25.05411 -1.7522826
-0.56553745 -25.114292 -1.7566075
-0.64850515 -25.100313 -1.7557704
-0.72966981 -25.177925 -1.761351
-0.80863494 -25.171518 -1.7610719
-0.89295131 -25.192625 -1.7627461
-0.97772574 -25.221424 -1.7649784
-1.0585449 -25.256104 -1.7676291
-1.1390495 -25.278561 -1.7694427
-1.2201861 -25.310726 -1.7719539
-1.310182 -25.338196 -1.7741863
-1.388683 -25.314034 -1.772791
-1.4708611 -25.355354 -1.7759998
-1.5523381 -25.380482 -1.7780925
-1.6399561 -25.428951 -1.7818593
-1.7244086 -25.425364 -1.7819989
-1.8022997 -25.391958 -1.7800457
-1.882948 -25.398109 -1.7808827
-1.9694735 -25.421564 -1.7829754
-2.0515711 -25.443092 -1.7849287
-2.1338263 -25.464355 -1.7868818
-2.2220657 -25.500868 -1.7899512
-2.3016307 -25.487799 -1.7895325
-2.3866978 -25.485987 -1.7899512
-2.4702113 -25.514107 -1.7924623
-2.5536134 -25.493864 -1.7916254
-2.6330781 -25.479761 -1.7912067
-2.7217886 -25.510567 -1.7939969
-2.8036633 -25.517756 -1.7951131
-2.8853831 -25.522701 -1.7960896
-2.9736955 -25.544699 -1.7983218
-3.6609595 -25.691103 -1.8146449
-3.7482698 -25.724882 -1.8178537
-3.842165 -25.739267 -1.8198069
-3.9251144 -25.740875 -1.8207835
-4.0148654 -25.785587 -1.8248293
-4.1027398 -25.816195 -1.8278986
-4.1886148 -25.832722 -1.8299913
-4.2852845 -25.857309 -1.8327817
-4.364171 -25.82995 -1.8318051
-4.4534197 -25.863297 -1.8351532
-4.5474062 -25.92189 -1.8403153
-4.6372061 -25.928272 -1.8418499
-4.7306724 -25.95397 -1.8447797
-4.8114591 -25.935055 -1.8445007
-4.9043837 -25.980589 -1.8488256
-4.9972906 -25.999449 -1.8513368
-5.0911951 -26.04628 -1.8558012
-5.1896062 -26.089911 -1.860126
-5.6714501 -33.567261 -1.5875634
-5.7768741 -33.549278 -1.5875634
-5.8877683 -33.562447 -1.5890541
-5.9976268 -33.53487 -1.5886812
-6.0969753 -33.44994 -1.5856068
-6.2122364 -33.485619 -1.5882155
-6.3218479 -33.489494 -1.5893334
-6.4234424 -33.4193 -1.5870043
-6.5299354 -33.406796 -1.587377
-6.647697 -33.420227 -1.5890541
-6.7588797 -33.39996 -1.5891472
-6.8686051 -33.402042 -1.5902652
-6.9722786 -33.374432 -1.5899856
-7.0737772 -33.336727 -1.5892403
-7.1838675 -33.311138 -1.5891472
-7.2981415 -33.304695 -1.5899856
-7.4062033 -33.297203 -1.590731
-7.5010962 -33.230896 -1.5886812
-7.5969815 -33.17017 -1.5869112
-7.7304649 -33.245983 -1.5917559
-7.8342462 -33.19294 -1.5904515
-7.9245329 -33.109879 -1.5876565
-8.0501852 -33.174126 -1.5919421
-8.2792206 -33.156834 -1.5937123
-8.3823652 -33.126785 -1.593526
-8.4849052 -33.094486 -1.5932466
-8.5632191 -32.969048 -1.588495
-8.6969185 -33.033211 -1.592967
-8.8125896 -33.027348 -1.594085
-8.8918095 -32.908852 -1.5897063
-9.0172958 -32.961693 -1.5936192
-9.1201487 -32.908501 -1.5925012
-9.2191734 -32.8643 -1.5917559
-9.325922 -32.825859 -1.5913832
-9.4405918 -32.83672 -1.5933397
-9.5639448 -32.855106 -1.595762
-9.683485 -32.880478 -1.5984639
-9.7918692 -32.867123 -1.5993023
-9.911767 -32.870819 -1.6010725
-10.026548 -32.856873 -1.6020043
-10.151512 -32.895844 -1.6054513
-10.260164 -32.880959 -1.6062899
-10.388656 -32.928581 -1.6102029
-10.514195 -32.945339 -1.6127185
-10.628298 -32.925499 -1.6134638
-10.740981 -32.920437 -1.6148611
-10.86062 -32.935863 -1.6172836
-11.000111 -32.990643 -1.6217556
-11.132426 -33.022133 -1.6251096
-11.468085 -32.987457 -1.62865
-11.586884 -32.994617 -1.6307929
-11.702249 -32.972954 -1.6316313
-11.838503 -33.009197 -1.635358
-11.961196 -33.024437 -1.6379666
-12.069688 -32.999832 -1.6386188
-12.861301 -33.158421 -1.6585565
-13.118496 -33.184292 -1.6640532
-13.241934 -33.191166 -1.6664757
-13.356402 -33.158188 -1.6670347
-13.503383 -33.221561 -1.6723452
-13.638505 -33.237595 -1.6754198
-13.749736 -33.211193 -1.6762582
-13.910634 -33.287075 -1.6824071
-14.043859 -33.311321 -1.6858544
-14.152347 -33.27623 -1.6863202
-14.29128 -33.279865 -1.6890221
-14.43546 -33.326462 -1.6936804
-14.572083 -33.354179 -1.6974071
-14.710629 -33.385025 -1.7013202
-14.846417 -33.392647 -1.7042084
-14.981597 -33.397915 -1.7070032
-15.126794 -33.439877 -1.7115684
-15.260795 -33.455803 -1.7148292
-15.415077 -33.51479 -1.7203261
-15.709846 -33.567429 -1.7283385
-15.827152 -33.543205 -1.7296427
-15.936747 -33.502342 -1.7301087
-16.091829 -33.541168 -1.7348601
-16.235397 -33.569584 -1.7389594
-16.393047 -33.610729 -1.7438973
-16.549683 -33.663052 -1.749301
-16.702921 -33.692112 -1.7536798
-17.259153 -33.727341 -1.7668164
-17.409374 -33.744492 -1.7707293
-17.744356 -33.869808 -1.7831206
