# .PCD v0.7 - Point Cloud Data file format
VERSION 0.7
FIELDS x y z
SIZE 4 4 4
TYPE F F F
COUNT 1 1 1
WIDTH 1542
HEIGHT 1
VIEWPOINT 0 0 0 1 0 0 0
POINTS 1542
DATA ascii
-19.468124 0.97258574 -1.3630415
-24.925793 1.2452391 -1.1638404
-19.332674 0.96581894 -0.44940746
-18.448992 0.92167205 0
-16.49498 0.82405376 0.38344234
-24.22543 1.2102505 1.1311389
-12.346417 0.61680049 0.8644222
-12.762592 0.63759178 1.1921751
-10.25881 0.51250815 -2.4337838
-11.363298 0.56768602 1.8692497
-12.307834 0.61487299 -2.3218074
-14.129472 0.70587808 2.6654499
-12.847416 0.68229854 -2.1137276
-28.277855 1.5017759 -3.9797943
-26.257811 1.3944957 -3.0749738
-25.1134 1.3337184 -2.3462646
-19.928228 1.0583452 -0.9306438
-19.261658 1.0229452 -0.4478291
-26.696379 1.4177871 0
-19.872368 1.0553786 0.92803514
-12.356372 0.65622026 0.86525929
-12.764503 0.67789525 1.1925467
-12.463386 0.6619035 1.4595498
-10.278525 0.5458703 -2.4388561
-12.51124 0.66444498 1.7608182
-13.797324 0.73274612 2.2700117
-12.307804 0.65364093 -2.3221776
-13.809234 0.73337859 2.6054604
-12.797793 0.72223008 -2.1059456
-28.306337 1.5974386 -3.9845262
-26.157845 1.4761906 -3.0638235
-19.921654 1.1242577 -1.8615545
-19.447495 1.097499 -1.362065
-25.024944 1.4122566 -1.1688714
-25.370787 1.4317738 -0.58997202
-19.263351 1.0871071 0
-16.487318 0.9304446 0.38339597
-19.974478 1.1272388 0.93297303
-12.354128 0.69719231 0.86525929
-12.788032 0.72167921 1.1949619
-12.469055 0.70367807 1.4604789
-10.276659 0.57995254 -2.4388561
-12.451625 0.70269442 1.7527462
-13.828316 0.78038651 2.2755237
-12.295757 0.6938982 -2.3203261
-13.883255 0.78348696 2.6199024
-12.75606 0.76008171 -2.0994608
-28.364443 1.6901219 -3.9934335
-25.346777 1.5103115 -2.3689303
-19.778538 1.1785227 -1.3855032
-25.200499 1.5015954 -0.58611906
-19.305758 1.1503516 0
-22.940336 1.3669214 1.0716984
-12.23039 0.72875923 0.856749
-13.276694 0.79110426 1.2408506
-12.542134 0.74733484 1.4693065
-10.282557 0.61269581 -2.4407005
-12.447379 0.74168873 1.7524679
-13.837615 0.82452726 2.2774692
-12.293516 0.73252064 -2.3203261
-13.827753 0.82393962 2.6099041
-12.771196 0.80349392 -2.1023791
-28.410076 1.7874069 -4.0006704
-26.125957 1.6437026 -3.0612679
-25.902086 1.6296178 -2.4213214
-25.114998 1.5800985 -1.1735299
-24.596727 1.5474918 -0.57219255
-16.564777 1.0421654 0.38534567
-19.926905 1.253692 0.93110961
-12.225915 0.76918781 0.85660952
-13.685497 0.86101681 1.6035767
-10.284353 0.64703536 -2.4416227
-12.377644 0.77873379 1.743004
-13.852533 0.87152576 2.2803874
-12.281211 0.77266675 -2.3184745
-13.75433 0.86534739 2.5965734
-12.782247 0.84675401 -2.1046486
-28.437588 1.883835 -4.0054021
-26.163971 1.7332202 -3.0663786
-26.536352 1.7578884 -2.4811437
-19.615007 1.2993872 -1.3746212
-22.956682 1.5207549 -1.0729096
-22.608345 1.4976794 -0.52604949
-19.030291 1.2606529 0
-18.745853 1.2418104 0.43617731
-16.206829 1.0736139 0.75744659
-12.255149 0.81183672 0.85884166
-12.839978 0.85057843 1.2005355
-10.284094 0.68126506 -2.4420841
-12.353257 0.81833583 1.7399423
-11.545572 0.76483113 1.9010254
-12.280543 0.81351894 -2.3188448
-11.590228 0.76778936 2.188498
-12.777554 0.88677031 -2.1043243
-28.303102 1.9642533 -3.9873097
-26.108852 1.8119709 -3.060571
-26.6042 1.8463483 -2.4880178
-19.811852 1.3749552 -1.3887119
-22.700668 1.5754409 -1.0611706
-22.687302 1.5745132 -0.52799922
-17.918901 1.2435831 0
-23.096209 1.6028914 0.53751564
-12.431668 0.86276567 0.87139785
-13.204758 0.91641855 1.2349055
-13.511208 0.93768638 1.5838311
-10.285785 0.71384001 -2.4430063
-12.342721 0.85659271 1.7388289
-11.411202 0.79194468 1.8793012
-12.272045 0.85168767 -2.317734
-11.550506 0.80161238 2.181462
-12.784547 0.92762256 -2.1059456
-28.516054 2.0690711 -4.0182061
-27.354986 1.9848261 -2.5588014
-18.57967 1.3481057 -1.3026325
-20.067379 1.4560511 -0.93828344
-23.037216 1.6715368 0.53626227
-15.863014 1.1509904 0.74170142
-12.685594 0.9204427 0.88939506
-13.791514 1.0006863 1.6170502
-10.283491 0.74615073 -2.4430063
-12.257005 0.88934511 1.7271384
-11.410625 0.82793343 1.8796254
-12.259506 0.88952661 -2.3158824
-11.54597 0.83775377 2.1810918
-12.795344 0.96882528 -2.1082153
-28.568661 2.1631336 -4.0265565
-27.316843 2.0683498 -2.555829
-18.611151 1.4091809 -1.3051436
-20.032825 1.5168257 -0.93688601
-22.38986 1.6952934 -0.5213145
-17.94663 1.3588653 0
-16.466417 1.246788 0.38339597
-12.614145 0.95510542 0.58993256
-12.736354 0.96435869 0.89316189
-13.101442 0.99200213 1.2258022
-13.722937 1.0390598 1.6093842
-10.283037 0.77860093 -2.4434674
-12.234401 0.92635232 1.7243549
-11.413872 0.86422431 1.8805981
-12.256652 0.92803711 -2.3158824
-14.083195 1.0663375 2.661006
-12.774355 1.0098486 -2.1052973
-28.636356 2.2637844 -4.0371337
-27.442841 2.1694336 -2.5682764
-26.574003 2.1007497 -1.8640325
-24.393305 1.9283593 -1.1411077
-17.967943 1.4204164 0
-16.324657 1.2905101 0.38019285
-12.567093 0.99346399 0.58788294
-12.750986 1.0080012 0.89441752
-13.000808 1.0277504 1.2166986
-10.284279 0.81300116 -2.4443896
-12.266802 0.96972513 1.7293651
-11.613587 0.91808665 1.913995
-12.253507 0.96867412 -2.3158824
-12.798473 1.0544735 -2.1098366
-28.678038 2.3628001 -4.0440922
-27.338249 2.2524142 -2.5591731
-26.071781 2.1480691 -1.8292937
-18.096684 1.4909961 0
-12.551784 1.0341487 0.5873239
-12.898692 1.0627307 0.90502053
-13.078697 1.0775614 1.2243158
-16.50522 1.3598746 1.936697
-10.279587 0.84694105 -2.4439285
-12.247728 1.0090973 1.7271384
-11.525903 0.94962579 1.9000525
-12.248269 1.0091419 -2.3155122
-11.547025 0.95136601 2.1829433
-28.665577 2.4524655 -4.7267861
-28.68034 2.4537284 -4.0454841
-27.493734 2.3522091 -2.5744073
-25.905874 2.2163608 -1.8181328
-18.778915 1.6066184 -0.87893611
-22.451908 1.920859 -0.52317137
-16.355827 1.3993126 0.38112128
-12.578331 1.0761312 0.58872139
-12.895289 1.1032484 0.90502053
-13.174453 1.1271321 1.233605
-10.278814 0.87939757 -2.4443896
-12.291856 1.051622 1.7338185
-11.499265 0.98381239 1.8961617
-12.227414 1.0461087 -2.3121796
-11.590977 0.99165875 2.1918306
-12.832877 1.1385282 -2.1166456
-28.737593 2.5495887 -4.0546694
-27.521914 2.4417343 -2.5777514
-25.902758 2.2980833 -1.8184117
-24.001541 2.1294079 -1.1236856
-22.310331 1.9793646 -0.5200147
-18.065044 1.6027242 0
-16.353342 1.4508625 0.38116771
-12.666429 1.1237609 0.59300709
-12.903685 1.1448102 0.90585762
-13.791702 1.2235949 1.2917554
-15.32892 1.3599763 1.799639
-10.268248 0.91099524 -2.4425452
-18.745426 1.6630874 2.644846
-11.478426 1.0183618 1.8932436
-12.220151 1.0841674 -2.3114388
-11.576058 1.0270237 2.1896088
-28.759657 2.6426425 -4.7449436
-28.776773 2.6442153 -4.0613499
-27.58946 2.5351164 -2.5848112
-27.778856 2.5525196 -1.95067
-23.879343 2.1942043 -1.1182818
-22.212412 2.0410349 -0.51787931
-17.926481 1.647213 0
-16.454227 1.5119319 0.38362804
-12.668804 1.1641001 0.59328657
-12.850354 1.1807822 0.90236974
-13.813569 1.2692893 1.2941706
-15.288966 1.4048593 1.7954576
-10.271148 0.94378638 -2.4439285
-18.779552 1.7255992 2.6504128
-12.208857 1.1218368 -2.3099577
-11.59626 1.0655471 2.1940525
-28.758595 2.7387481 -4.7462406
-28.80728 2.7433844 -4.0669169
-27.073105 2.5782349 -1.901701
-23.854036 2.2716753 -1.1174433
-22.326942 2.1262467 -0.520711
-17.871147 1.701911 0
-16.572535 1.5782411 0.38650617
-14.627851 1.3930442 0.6852423
-13.767653 1.3111258 1.290269
-10.27765 0.97876453 -2.446234
-14.895558 1.4185387 2.1029058
-11.501081 1.0952747 1.8981071
-12.195286 1.1613855 -2.3081062
-11.52614 1.0976611 2.181462
-28.851484 2.844162 -4.7631011
-28.80788 2.8398635 -4.0683084
-27.771246 2.7376728 -1.9513676
-26.335588 2.5961466 -1.2340882
-22.403341 2.208508 -0.52266073
-17.88929 1.7635154 0
-16.541344 1.6306357 0.38590273
-15.935356 1.5708979 0.74673241
-12.89982 1.2716565 0.90641558
-13.800883 1.3604828 1.2937989
-15.374203 1.5155797 1.8066081
-10.284031 1.0137936 -2.4485397
-18.219763 1.7960932 2.5730324
-12.181588 1.2008537 -2.3062546
-11.436376 1.1273911 2.1651688
-28.879709 2.9385846 -4.7692618
-28.901274 2.9407787 -4.0827823
-27.957607 2.8447585 -2.6217821
-27.683111 2.8168278 -1.9457871
-26.380966 2.6843309 -1.2366037
-22.312746 2.2703793 -0.520711
-16.468504 1.6757126 0.38432437
-15.753449 1.6029539 0.73844057
-12.812397 1.3036942 0.90055609
-13.794559 1.4036318 1.2936132
-15.381223 1.565079 1.8080019
-10.284667 1.0464913 -2.4494619
-12.864223 1.3089678 2.1244276
-12.173844 1.2387199 -2.3055141
-11.489481 1.1690842 2.1759076
-28.909594 3.0334117 -4.7757468
-28.911591 3.0336215 -4.085566
-28.031713 2.941298 -2.629585
-18.804596 1.9731195 -1.3221642
-25.533924 2.6792111 -1.1972873
-22.528221 2.3638303 -0.52591026
-17.613308 1.8481206 0
-16.447252 1.7257693 0.38395303
-15.869539 1.6651514 0.74412376
-12.82808 1.3460186 0.90195119
-13.5346 1.4201519 1.269647
-17.95046 1.8834972 2.1106906
-10.285199 1.0792004 -2.4503841
-12.875751 1.3510205 2.1270213
-12.152302 1.2751108 -2.3021815
-11.479888 1.2045561 2.1747966
-28.964123 3.1362748 -4.7864466
-28.958473 3.1356633 -4.0936379
-28.019827 3.0340252 -2.6293993
-28.541069 3.090466 -2.0074518
-25.44545 2.7552681 -1.1935607
-15.897696 1.7214243 0.74570757
-13.741653 1.4879651 1.289526
-18.017187 1.9509256 2.1192856
-10.285434 1.1137209 -2.4513063
-15.005951 1.6248649 2.1212766
-12.912403 1.3981727 2.1338303
-12.142143 1.314768 -2.3010705
-11.44066 1.2388103 2.1681314
-28.9771 3.234935 -4.7903376
-28.89477 3.225744 -4.0861225
-28.049191 3.1313455 -2.6331151
-28.554457 3.187752 -2.0091259
-24.135674 2.6944494 -1.1325363
-23.461889 2.61923 -0.54809976
-17.556932 1.9600146 0
-16.304293 1.8201728 0.38088915
-13.241209 1.4782174 0.93166751
-13.738623 1.5337474 1.2897117
-10.281684 1.147823 -2.4513063
-12.925347 1.4429553 2.1367486
-12.129904 1.3541539 -2.2995892
-11.614236 1.2965859 2.2018287
-29.061487 3.3316884 -4.8059011
-29.028711 3.3279309 -4.1064415
-24.115664 2.7646859 -1.1319773
-19.745314 2.2636569 -0.46143064
-17.650391 2.023489 0
-12.792218 1.4665349 0.60046041
-13.222891 1.5159084 0.93069088
-14.105949 1.6171446 1.3246391
-16.826372 1.9290212 1.9806018
-10.289833 1.1796547 -2.454073
-14.841969 1.701524 2.0995655
-12.905324 1.4795016 2.1341546
-12.11607 1.3890195 -2.2977376
-11.543949 1.3234299 2.1892385
-29.097317 3.4335933 -4.8136826
-29.11586 3.4357812 -4.1203589
-27.928102 3.2956216 -2.6236401
-28.202971 3.3280571 -1.9858272
-23.981365 2.8298917 -1.1261079
-17.85924 2.1074576 -0.41751581
-17.760769 2.0958378 0
-28.18281 3.3256779 0.6588617
-12.783317 1.5084796 0.60027409
-13.229679 1.5611521 0.93152797
-13.580392 1.6025375 1.2757779
-16.835667 1.9866722 1.9824603
-10.276202 1.2126306 -2.4517674
-14.78904 1.7451625 2.0928853
-12.902306 1.5225208 2.1344788
-12.103589 1.4282691 -2.2962563
-11.432143 1.3490361 2.1688719
-29.115776 3.5285444 -4.8185463
-28.424637 3.4447849 -4.0240512
-28.172573 3.4142373 -1.9844322
-26.219458 3.1775391 -1.2316658
-17.792986 2.1563339 -0.41612318
-17.984413 2.1795332 0
-22.481405 2.7245243 0.52577096
-12.780498 1.54887 0.60036725
-13.347509 1.6175861 0.94017774
-13.508077 1.6370454 1.2694613
-10.268478 1.2444381 -2.450845
-14.757925 1.7885146 2.0892668
-12.938603 1.5680308 2.1412878
-12.089287 1.4651021 -2.2944047
-11.431752 1.3854153 2.1696124
-28.075748 3.4970126 -4.6483197
-29.199196 3.636945 -4.1353898
-28.394716 3.536742 -2.0008948
-25.715132 3.2029827 -1.2084674
-17.795656 2.2165618 -0.41635528
-18.163645 2.2623973 0
-12.856574 1.6013678 0.60418707
-13.415326 1.6709639 0.94533974
-16.869795 2.1012399 1.9880356
-10.266227 1.2787236 -2.4513063
-14.704744 1.8315692 2.0825865
-18.401211 2.2919874 3.0465691
-12.060959 1.5022689 -2.2899613
-11.4505 1.4262323 2.1740561
-29.213104 3.737097 -4.8386493
-29.243946 3.7410426 -4.1434617
-26.689262 3.4142337 -1.2547712
-18.207623 2.3292167 0
-18.07777 2.3126054 0.42313284
-12.787779 1.6358813 0.60120577
-13.368151 1.7101256 0.94240993
-13.487046 1.7253354 1.2685324
-16.7386 2.1412914 1.9734006
-10.26193 1.3127611 -2.4513063
-14.627868 1.8712753 2.072566
-15.511936 1.9843701 2.5692861
-12.044213 1.5407604 -2.2877395
-11.482748 1.4689348 2.1810918
-29.275578 3.8386123 -4.8509703
-29.259541 3.8365095 -4.1473589
-27.117105 3.5555937 -1.9124434
-23.81208 3.1222389 -1.1199589
-18.034729 2.3647127 -0.42229721
-18.350925 2.4061725 0
-15.976902 2.0948906 0.37411159
-12.735036 1.6698173 0.59896976
-13.372603 1.7534151 0.94310749
-13.424299 1.7601935 1.2631446
-16.511192 2.1649468 1.9473827
-10.271262 1.3467674 -2.4545343
-14.741703 1.9329314 2.089545
-15.583898 2.04336 2.5822558
-12.02762 1.5770609 -2.2855177
-11.431306 1.4988723 2.1722045
-29.324009 3.9387038 -4.861022
-29.302303 3.9357884 -4.1551523
-27.026875 3.6301603 -2.5441244
-28.701542 3.8550959 -2.0250304
-23.841757 3.2023456 -1.1218221
-18.158001 2.4389224 -0.42536104
-18.491941 2.4837761 0
-12.80497 1.7199211 0.60251009
-13.456011 1.8073668 0.94938558
-13.430546 1.8039464 1.2642593
-16.685438 2.2411327 1.9687544
-10.270838 1.3795449 -2.4554565
-14.660967 1.9692124 2.078968
-15.577401 2.0923049 2.5822558
-12.003127 1.6122203 -2.2818146
-11.399269 1.5311121 2.1670203
-29.345978 4.040771 -4.8668585
-29.385229 4.0461755 -4.1687913
-27.113325 3.7333477 -2.5534136
-28.761732 3.9603236 -2.0301924
-18.209238 2.5073063 -0.42675373
-18.55493 2.5549061 0
-12.854611 1.7700053 0.60511875
-13.444014 1.8511628 0.9489671
-13.371226 1.8411403 1.2592432
-16.56181 2.2804649 1.9550487
-10.270061 1.4141279 -2.4563785
-14.793659 2.0370011 2.0987306
-18.684843 2.5727944 3.0987718
-11.982139 1.649871 -2.2788522
-11.468118 1.5790933 2.1810918
-29.380041 4.1395464 -4.87464
-29.409637 4.1437168 -4.1740799
-26.96146 3.7987769 -2.5402231
-28.755074 4.0514908 -2.0306108
-27.025408 3.8077869 -1.2727525
-18.242849 2.5703547 -0.42772856
-18.635933 2.6257386 0
-15.750148 2.2191415 0.36928377
-15.033019 2.1181006 0.70797497
-13.750279 1.9373671 0.97101015
-13.454111 1.8956379 1.2676035
-14.687848 2.0694673 1.7345947
-10.263641 1.4461118 -2.4559176
-21.00016 2.9588501 2.9805312
-11.961327 1.6853098 -2.2758896
-11.511756 1.6219667 2.1903496
-29.438425 4.2473807 -4.8866372
-29.458462 4.2502718 -4.1829872
-23.487085 3.3887205 -2.7750726
-26.990105 3.8941364 -2.5441244
-27.442141 3.9593563 -1.9388114
-22.138731 3.1941798 -0.51931834
-18.682549 2.6955209 0
-15.902999 2.2944872 0.37304392
-14.915179 2.1519644 0.70275766
-13.812893 1.9929264 0.97589308
-13.396505 1.9328499 1.262773
-14.62192 2.109653 1.7276256
-10.260715 1.4804177 -2.4563785
-20.976511 3.0264943 2.9785829
-11.840143 1.7082977 -2.5427601
-14.866688 2.144968 2.4677987
-11.942056 1.7230016 -2.2732975
-11.26899 1.6258916 2.1451724
-29.448364 4.3433065 -4.8905282
-29.503744 4.3514748 -4.1913376
-27.046688 3.9890864 -2.550627
-27.123629 4.0004339 -1.917187
-26.820396 3.9557106 -1.2642744
-18.75313 2.7658784 0
-14.560492 2.1475108 0.6863603
-13.733533 2.0255437 0.97073108
-13.213062 1.9487799 1.2460525
-14.601464 2.1535537 1.7259995
-10.263716 1.5137841 -2.4582231
-20.122423 2.967834 2.8586156
-11.832783 1.7452041 -2.5423443
-14.649013 2.1605668 2.4327805
-11.911306 1.7567854 -2.2684836
-11.388267 1.6796428 2.1688719
-29.518488 4.4484401 -4.90447
-29.542805 4.4521046 -4.198853
-26.917847 4.0565228 -2.5396657
-26.728817 4.0280361 -1.2605476
-27.780745 4.1865616 -0.65226978
-22.375349 3.371968 0
-15.72812 2.3702297 0.36928377
-14.792711 2.2292635 0.69763345
-13.71132 2.0662978 0.96961498
-13.210814 1.9908713 1.2464241
-14.574985 2.1964521 1.7236766
-10.255061 1.545439 -2.4573009
-11.829176 1.7826585 -2.5427601
-14.610929 2.201869 2.4275928
-11.894068 1.7924376 -2.2662618
-11.56562 1.7429405 2.2036803
-29.551182 4.5483603 -4.9122519
-29.581526 4.5530305 -4.206368
-27.318287 4.2046852 -2.5786805
-27.036831 4.1613646 -1.9128619
-26.765394 4.1195865 -1.2628767
-22.311193 3.4340198 -0.52409983
-18.844101 2.9003835 0
-15.775929 2.4281468 0.37058356
-14.724422 2.2663045 0.6947453
-13.761947 2.1181655 0.97366089
-13.1671 2.0266097 1.2428943
-14.516965 2.2343738 1.7176367
-10.252078 1.5779451 -2.457762
-14.520629 2.2349377 2.0647724
-11.819652 1.8192177 -2.5419285
-10.85884 1.6713347 1.80505
-11.86701 1.8265069 -2.2621884
-11.093877 1.7075104 2.1148074
-23.581959 3.7097046 -3.92202
-29.613218 4.6584888 -4.2130485
-27.351404 4.30268 -2.5831392
-27.109602 4.2646418 -1.9190006
-21.788088 3.4275086 -1.0285622
-22.244375 3.4992876 -0.52279997
-22.515116 3.5418782 0
-14.624068 2.3005288 0.69036645
-13.748933 2.1628602 0.97324234
-13.152437 2.0690248 1.242151
-14.421171 2.2686107 1.7071831
-10.242944 1.611329 -2.4568396
-14.560093 2.2904646 2.0714526
-11.801958 1.8565793 -2.5394337
-10.923423 1.7183759 1.8167226
-11.839531 1.8624901 -2.2581153
-9.5815163 1.5072792 1.8274513
-23.476 3.7728488 -3.9064562
-29.413797 4.727118 -4.1868839
-26.780573 4.3039298 -2.5305622
-23.043325 3.7033136 -1.6320225
-24.911545 4.0035567 -0.58579409
-22.465729 3.6104875 0
-16.17602 2.5996628 0.38037854
-14.596636 2.3458383 0.68943483
-13.721988 2.2052729 0.97184724
-13.12781 2.109782 1.240479
-14.417491 2.3170478 1.7076477
-10.237544 1.6452849 -2.4568396
-14.480067 2.3271046 2.0611537
-11.782217 1.8935306 -2.5365229
-10.909871 1.7533352 1.8154258
-11.815825 1.8989319 -2.2547824
-9.5163088 1.5293746 1.8159719
-23.382231 3.8331795 -3.892838
-27.767166 4.5520263 -2.6251264
-23.202868 3.8037751 -1.6441602
-22.567904 3.6996822 -1.0664811
-24.833729 4.0711317 -0.58426219
-25.420679 4.1673532 0
-16.13423 2.644974 0.37958935
-13.69807 2.2456007 0.64732337
-13.791776 2.2609625 0.97728819
-13.0995 2.1474738 1.2384354
-14.715947 2.412467 1.7438867
-10.238087 1.6783866 -2.4582231
-14.494184 2.3761122 2.0642157
-11.747252 1.9257923 -2.5302856
-10.896518 1.7863269 1.8141288
-11.790405 1.9328667 -2.2510793
-9.4940014 1.5564045 1.8126392
-23.33893 3.9014072 -3.8876503
-23.691584 3.9603577 -2.8089888
-23.169155 3.8730271 -1.6426255
-22.410353 3.7461834 -1.0595866
-24.799128 4.1454983 -0.58375156
-22.365665 3.7387135 0
-16.534067 2.7638853 0.38919866
-13.675183 2.2859857 0.64657807
-13.896771 2.3230269 0.9852404
-13.039659 2.1797493 1.2334193
-14.7514 2.4658892 1.7489973
-10.228925 1.7098985 -2.4573009
-14.453439 2.4160812 2.0594838
-11.725707 1.9601052 -2.5269589
-10.92005 1.825429 1.8189923
-11.766829 1.9669791 -2.2477465
-9.5123262 1.5901097 1.8170828
-23.337536 3.9807723 -3.8895957
-23.564743 4.0195279 -2.7955151
-24.00749 4.0950489 -2.2721369
-23.199453 3.9572189 -1.6456947
-24.520803 4.1826067 -1.1600206
-21.633623 3.6901293 -0.50952339
-24.494221 4.1780725 0
-16.645039 2.8392076 0.39203036
-13.677374 2.3330016 0.64704382
-13.784756 2.3513181 0.97784626
-13.042173 2.224653 1.2343482
-16.323393 2.7843432 1.9364645
-10.234708 1.7457731 -2.4600675
-14.583963 2.487642 2.0792463
-11.701786 1.9960182 -2.5232165
-10.927554 1.8639544 1.821262
-11.735054 2.0016928 -2.2429326
-9.4837532 1.6176797 1.8126392
-23.348249 4.0581264 -3.8934865
-23.471758 4.0795932 -2.785991
-23.568768 4.0964541 -2.2318218
-23.340229 4.0567322 -1.6565768
-22.001873 3.8241143 -1.0414191
-24.486198 4.2559118 -0.57702041
-22.524309 3.9149184 0
-13.650294 2.3725383 0.6461122
-13.720297 2.3847053 0.97380042
-13.097901 2.2765279 1.2402931
-14.588384 2.5355864 1.7315748
-10.229173 1.7779181 -2.4600675
-14.234603 2.4740961 2.0305357
-11.676184 2.0294209 -2.5190582
-10.643597 1.8499485 1.7748957
-11.711281 2.035521 -2.2395999
-9.5289698 1.6562167 1.8222669
-23.315229 4.1320858 -3.890244
-23.458101 4.1574068 -2.785991
-23.476622 4.1606894 -2.2243905
-24.269615 4.301229 -1.723543
-24.688032 4.3753834 -1.1692441
-21.581779 3.8248723 -0.50887352
-25.21113 4.4680905 0
-16.382227 2.9033716 0.38627407
-13.650219 2.4191861 0.64648485
-13.70249 2.4284499 0.97310281
-10.230886 1.8131884 -2.4619122
-11.63857 2.0626678 -2.5124052
-10.59271 1.8773131 1.7674379
-11.692854 2.0722883 -2.2373781
-9.7788801 1.7330806 1.8711473
-23.358458 4.2154727 -3.8996472
-23.49184 4.2395444 -2.7915659
-23.422281 4.2269912 -2.220489
-23.602167 4.2594547 -1.6770852
-26.7523 4.8279557 -1.2677214
-24.599878 4.4395103 -0.5803628
-21.730959 3.9217598 0
-13.724245 2.4767981 0.97519547
-12.843845 2.3179133 1.2176276
-14.704638 2.6537282 1.7473712
-10.236631 1.8473926 -2.4646788
-14.356711 2.5909383 2.0502982
-11.607004 2.0947022 -2.5069995
-10.454692 1.8867457 1.7453897
-11.661141 2.1044722 -2.2325642
-9.5683641 1.7267913 1.8318949
-23.055653 4.2398205 -2.741389
-23.414011 4.3057203 -2.2210464
-23.580063 4.3362565 -1.676527
-26.582882 4.8884602 -1.2604544
-24.600752 4.5239563 -0.58073413
-22.445629 4.1276402 0
-14.333724 2.6359007 0.33836702
-17.92758 3.296793 0.85005444
-13.788559 2.5356476 0.98035747
-12.802793 2.3543701 1.2144692
-18.261265 3.3581562 2.1713212
-10.234276 1.8820326 -2.465601
-11.573058 2.1282279 -2.5011778
-10.475552 1.926402 1.749929
-11.636703 2.1399319 -2.2292314
-9.9936457 1.8377819 1.9144727
-30.060135 5.625598 -5.0244393
-23.698282 4.4350104 -2.8194423
-23.572617 4.4114923 -2.2373953
-23.523182 4.4022412 -1.6734579
-26.604704 4.9789319 -1.2622247
-28.430624 5.3206434 -0.67153478
-26.4331 4.9468174 0
-14.309649 2.6779764 0.33799562
-20.430716 3.8235023 0.96930802
-13.878577 2.5973036 0.98733312
-14.579803 2.7285345 1.7345947
-10.239791 1.9163235 -2.4683676
-12.20216 2.2835708 1.7446741
-11.549009 2.1613371 -2.4974356
-11.620262 2.1746716 -2.2273798
-9.8603191 1.8453074 1.8900326
-22.043182 4.1969867 -3.686621
-26.517675 5.0489225 -3.1567438
-22.973734 4.3741622 -2.1818459
-23.575871 4.4888082 -1.6782012
-26.56538 5.0580058 -1.2611066
-28.01897 5.3347669 -0.66220403
-24.448792 4.6550107 0
-14.307058 2.724041 0.33813488
-20.495146 3.9022429 0.97294158
-13.825273 2.6323097 0.98412436
-12.770142 2.4314146 1.2127972
-12.574869 2.3942349 1.4969503
-10.226073 1.9470279 -2.4665234
-12.138504 2.3111517 1.7366021
-11.509492 2.1913888 -2.4903665
-10.083252 1.9198351 1.6863778
-11.586343 2.2060211 -2.2221956
-9.8641272 1.878114 1.8918842
-30.201427 5.8541536 -5.0542693
-27.157991 5.2642231 -3.2350295
-27.568907 5.3438735 -2.6199243
-25.678179 4.9773808 -1.8290148
-21.805984 4.2268062 -1.0358292
-22.275272 4.3177714 -0.52679223
-24.337011 4.7174129 0
-21.898167 4.2446742 1.0402081
-13.714615 2.6583996 0.97686964
-12.781557 2.4775383 1.214655
-10.213827 1.9798174 -2.4651399
-10.419748 2.0197325 1.4916574
-11.473353 2.2239602 -2.4841292
-10.402327 2.0163555 1.7408503
-11.55388 2.2395692 -2.2173817
-9.8424082 1.9078227 1.8889219
-30.281643 5.9684629 -5.070806
-26.656029 5.2538605 -3.1771865
-26.623949 5.2475376 -2.531677
-22.544168 4.4434195 -1.6067705
-21.81612 4.299922 -1.0369471
-23.225176 4.5776448 0
-14.200891 2.7989731 0.33604592
-14.8675 2.9303603 0.70667064
-13.892157 2.7381217 0.99012333
-13.97137 2.7537346 1.3285406
-12.522116 2.4680889 1.4925365
-10.209468 2.0122697 -2.465601
-10.47942 2.0654769 1.5011212
-11.437519 2.2543166 -2.4778917
-10.432732 2.0562747 1.7470109
-11.512078 2.2690122 -2.2107162
-9.8884315 1.948994 1.8989201
-29.598003 5.9357514 -4.2425532
-26.858547 5.3863649 -3.2034366
-26.55954 5.3264008 -2.5272181
-22.466711 4.5056014 -1.6023062
-21.690086 4.349853 -1.0316367
-21.829353 4.3777823 -0.51690441
-21.713659 4.3545804 0
-13.93386 2.7943752 0.99375069
-13.757151 2.7589369 1.3090333
-12.564502 2.5197563 1.4985764
-10.198922 2.0453496 -2.4646788
-10.392896 2.0842502 1.489709
-11.395454 2.2853091 -2.470407
-10.452945 2.0962927 1.7515502
-11.47751 2.301765 -2.2055318
-9.9108191 1.9875718 1.9044745
-26.899885 5.4826193 -3.2104056
-26.431454 5.387146 -2.5166285
-24.043764 4.900497 -1.7158698
-21.598011 4.4020143 -1.02791
-25.218596 5.139946 -0.59753877
-14.190357 2.8922179 0.33623162
-14.912867 3.0394766 0.70974517
-13.932833 2.8397303 0.99430877
-13.779634 2.808506 1.3120058
-12.556523 2.559217 1.4985764
-10.194352 2.0777693 -2.4651399
-10.384356 2.1164949 1.4894307
-11.355632 2.3144562 -2.4633379
-11.443262 2.3323166 -2.2003477
-9.9045258 2.0186982 1.9044745
-26.863077 5.5630741 -3.2080824
-26.3988 5.4669271 -2.5151424
-24.051695 4.980865 -1.717544
-25.338253 5.2472982 -1.2066972
-21.99721 4.5554018 -0.5215466
-21.558571 4.4645638 0
-14.128338 2.925837 0.33497822
-14.868031 3.07902 0.70806813
-13.873048 2.8729692 0.99068141
-13.784393 2.8546097 1.3133063
-10.193493 2.1109703 -2.4665234
-10.352445 2.1438875 1.4858122
-11.319571 2.3441696 -2.4571006
-10.435701 2.1611292 1.7509017
-11.407009 2.3622773 -2.194793
-9.8442469 2.038645 1.894106
-30.475737 6.4166894 -4.3769941
-26.722019 5.6263413 -3.1934476
-26.990446 5.6828589 -2.5732927
-24.054569 5.0647078 -1.7189391
-25.131081 5.291368 -1.19766
-25.329662 5.3331795 -0.60097396
-21.539732 4.5352068 0
-14.087252 2.9660814 0.33423546
-14.838186 3.1241915 0.70713645
-13.859539 2.9181364 0.99040246
-13.831362 2.9122036 1.3186941
-12.49697 2.6312466 1.4934658
-10.194053 2.1463656 -2.4683676
-10.368534 2.1831026 1.4891523
-11.284934 2.3760514 -2.4512792
-10.46517 2.2034495 1.7570622
-11.356801 2.3911831 -2.1866465
-9.727807 2.048197 1.8729987
-30.514639 6.5306315 -5.1268992
-30.533695 6.5347099 -4.3884068
-26.660479 5.7057781 -3.1883368
-27.078552 5.7952528 -2.5835109
-24.090315 5.1557212 -1.7227058
-21.919275 4.6910834 -1.0453322
-23.122026 4.9484921 -0.54898173
-27.514921 5.8886433 0
-14.044101 3.0056672 0.33344632
-14.825792 3.172962 0.70704329
-13.838079 2.9615753 0.98956537
-12.367743 2.646899 1.479063
-10.184977 2.1797514 -2.4679065
-10.38835 2.2232769 1.4930491
-11.244472 2.4065006 -2.4442101
-11.302683 2.4189589 -2.1777589
-9.9804182 2.1359725 1.9229898
-26.925831 5.8510876 -3.2222528
-26.351891 5.726368 -2.5158854
-24.091547 5.2351866 -1.7239615
-21.777534 4.7323427 -1.0392764
-23.053616 5.0096397 -0.54772836
-27.476746 5.9708033 0
-13.975973 3.0370331 0.33205366
-14.794277 3.2148538 0.70601851
-13.799464 2.998677 0.98747265
-14.004915 3.0433223 1.3370867
-10.185685 2.2133889 -2.4697511
-11.484476 2.495621 1.6517066
-11.246414 2.4438894 -2.4462893
-10.512437 2.2843933 1.7674379
-11.26622 2.4481933 -2.1722045
-9.8353758 2.1372652 1.8963279
-30.665726 6.7647476 -5.1593237
-27.157753 5.9909015 -3.9085376
-26.990728 5.9540567 -3.2322419
-26.773249 5.9060812 -2.5578725
-24.108101 5.3181596 -1.7263333
-21.711836 4.7895517 -1.036854
-19.738005 4.3541322 -0.46927586
-26.930527 5.9407763 0
-13.991744 3.0865281 0.33265713
-14.739231 3.2514207 0.70387566
-15.798658 3.4851265 1.1313105
-18.913177 4.1721783 1.8069341
-10.17488 2.2445414 -2.4688287
-11.432095 2.5218785 1.6453046
-11.269246 2.4859548 -2.4529424
-10.545679 2.3263383 1.7742471
-11.308373 2.494586 -2.1818323
-27.11754 6.0714254 -3.9054761
-26.832323 6.0075674 -3.2155161
-26.847841 6.0110416 -2.5667903
-24.16526 5.4104309 -1.7316347
-21.710329 4.8607893 -1.0375062
-23.004122 5.1504602 -0.54731059
-13.929298 3.1186714 0.33140376
-14.744541 3.3011985 0.70462096
-17.757351 3.9757454 1.6976931
-11.380766 2.5480731 1.3638415
-10.177275 2.27862 -2.4711344
-11.437645 2.5608077 1.6472529
-11.307199 2.5316019 -2.4629221
-10.513283 2.3538496 1.7700319
-11.352265 2.541692 -2.1918306
-10.732772 2.4029918 2.0722225
-27.103905 6.1678047 -3.9065893
-26.849926 6.1100092 -3.2201622
-26.782034 6.0945592 -2.5625172
-24.297966 5.5292811 -1.7425168
-25.895121 5.8927321 -1.2384671
-22.987953 5.2311726 -0.54735702
-13.637358 3.1033373 0
-13.877385 3.1579585 0.3304289
-14.771888 3.3615127 0.70648432
-15.854959 3.6079779 1.1370306
-16.778334 3.8181026 1.6053586
-10.167361 2.3136997 -2.4706733
-11.380358 2.589731 1.6402943
-11.344073 2.5814743 -2.4729021
-10.53964 2.3984163 1.7758683
-11.387403 2.5913341 -2.2003477
-10.741568 2.4443669 2.0755553
-27.052679 6.240624 -3.9018574
-26.560692 6.12713 -3.18764
-26.769655 6.1753345 -2.5630746
-26.167206 6.0363588 -1.8778443
-27.781401 6.4087281 -1.3295844
-19.38747 4.4723816 -0.46194127
-13.524803 3.1199572 0
-13.887438 3.2036114 0.3308931
-14.915639 3.4408011 0.71384448
-15.725596 3.6276455 1.1285203
-16.753349 3.8647318 1.6040581
-11.422144 2.6349072 1.3708106
-10.177519 2.3477919 -2.4748232
-11.322447 2.6119087 1.6330572
-11.376395 2.6243539 -2.4816341
-10.530556 2.4292319 1.775544
-11.414136 2.63306 -2.2070131
-10.738097 2.4771087 2.0762959
-27.022413 6.3280935 -2.5892699
-27.841696 6.5199523 -1.3334973
-22.929325 5.3695765 -0.54675353
-14.231055 3.3326204 0.33934185
-14.960559 3.5034552 0.71654636
-15.686283 3.6734049 1.1265671
-16.746256 3.9216287 1.6046153
-11.424948 2.6754878 1.3722044
-10.163993 2.380198 -2.4734399
-11.304083 2.6471837 1.6316656
-11.41144 2.6723244 -2.4911981
-11.466578 2.6852367 -2.2188628
-10.791061 2.5270445 2.0881455
-26.75634 6.3545256 -2.5656755
-26.036697 6.1836133 -1.2479701
-21.340496 5.068284 -0.50924486
-22.593554 5.3658805 0
-20.895012 4.9624829 0.49861431
-13.66465 3.2453005 0.65496302
-12.283504 2.917284 1.1778698
-10.167825 2.4148183 -2.4762068
-11.338101 2.6927545 1.6377891
-11.452474 2.7199175 -2.5020094
-11.500154 2.7312415 -2.2270095
-26.956951 6.4916964 -2.5868549
-27.436968 6.6072922 -1.3160751
-19.449968 4.6838861 0
-21.032887 5.0650797 0.50228167
-15.224525 3.6663268 1.0950371
-12.757857 3.0723107 1.5345831
-10.156404 2.4458363 -2.4752843
-11.423935 2.7510796 1.6514281
-11.487617 2.7664154 -2.5115736
-13.300364 3.202956 2.2476389
-11.537376 2.778398 -2.2358968
-10.799809 2.6007793 2.0929594
-24.388502 5.963315 -2.3423634
-27.456432 6.7134652 -1.3181248
-21.195705 5.1826339 -0.50659883
-24.15831 5.9070301 0
-13.638436 3.3347802 0.32597244
-13.576845 3.3197203 0.65179539
-15.419005 3.770153 1.109965
-12.157497 2.9726708 1.1676518
-12.36885 3.0243495 1.4890521
-10.151587 2.4821987 -2.4762068
-11.521598 2.8171849 -2.5211375
-13.162578 3.2184262 2.226239
-11.561973 2.8270571 -2.2425623
-10.977766 2.6842105 2.1292493
-26.999546 6.6917143 -3.2529166
-24.945641 6.182663 -2.3977268
-27.524405 6.8217983 -1.3224103
-19.616486 4.8618565 0
-13.669123 3.3878298 0.65673321
-12.180958 3.0189948 1.1708101
-12.239744 3.0335646 1.4746494
-10.143738 2.5140791 -2.4762068
-13.439308 3.3308713 1.9459184
-11.554465 2.8637216 -2.5302856
-13.160064 3.2616618 2.227536
-11.583557 2.8709319 -2.2484872
-10.99217 2.7243593 2.1336927
-27.038118 6.7914996 -3.260118
-24.993694 6.2779765 -2.4042294
-24.630859 6.1868386 -1.7758604
-27.679165 6.9525194 -1.3308886
-19.643789 4.9341745 0
-13.605578 3.4174821 0.32569391
-15.122175 3.7984245 1.0902938
-12.287295 3.0863523 1.1819571
-12.259052 3.0792584 1.4781339
-10.149003 2.5492511 -2.4794345
-13.843687 3.4772906 2.0060413
-11.655458 2.9276462 -2.5544033
-13.218658 3.3202946 2.2392087
-13.238599 3.3253033 -2.5717628
-14.597724 3.6666918 2.8357897
-27.047447 6.8842568 -3.2638347
-24.993143 6.3613844 -2.4060872
-24.588099 6.2582903 -1.7741863
-27.078293 6.8921075 -1.3030318
-22.694126 5.776227 -0.54368973
-20.942291 5.3303409 0
-13.612213 3.4646511 0.32611167
-13.575932 3.4554164 0.65328604
-12.082332 3.0752578 0.8718164
-12.2428 3.116101 1.1786129
-12.316695 3.1349092 1.4862643
-10.140943 2.5811255 -2.4794345
-13.719452 3.491946 1.9896188
-11.701182 2.9782457 -2.5664623
-13.156522 3.3486662 2.2304542
-13.243324 3.3707595 -2.5747254
-15.513717 3.9486315 3.0161278
-31.318138 8.0819321 -4.5456724
-26.860979 6.9317217 -3.2440894
-21.138681 5.4550304 -2.0367486
-21.153648 5.4588928 -1.5276668
-25.883007 6.6793475 -1.2465726
-21.172485 5.4637542 -0.50766659
-13.728254 3.5427017 0
-13.62969 3.5172663 0.32680804
-13.550857 3.4969227 0.65263385
-12.027636 3.1038415 0.86860764
-12.288317 3.1711125 1.1840007
-12.865956 3.3201778 1.5538641
-10.139865 2.6166852 -2.4812789
-11.638203 3.003345 -2.5548191
-13.458739 3.473151 2.2836297
-13.277747 3.4264443 -2.5836124
-15.778396 4.1276116 -2.679528
-31.339066 8.198266 -4.5526309
-26.866671 7.0282927 -3.2475736
-21.131571 5.5279965 -1.5273879
-24.457512 6.3980594 -1.1789335
-13.642905 3.5689697 0
-12.103125 3.1661646 0.58341086
-12.001836 3.1396675 0.86749154
-12.428003 3.2511525 1.1984918
-12.931747 3.3829315 1.5631561
-10.133016 2.6507862 -2.4817402
-12.939148 3.3848674 1.8796721
-11.616825 3.0389493 -2.5523243
-13.384143 3.5012777 2.2729297
-13.270115 3.4714482 -2.5843532
-15.076478 3.9439907 2.9361422
-31.295923 8.2921162 -4.5501256
-26.441216 7.0058208 -3.1987903
-22.63526 5.9974012 -2.1846328
-24.668472 6.5361176 -1.7845101
-24.441153 6.4758878 -1.1791198
-13.591026 3.6010561 0
-13.502324 3.5775535 0.32430127
-11.99577 3.1783795 0.86777055
-12.127063 3.2131665 1.1704384
-14.015572 3.7135429 1.695568
-10.126519 2.6831059 -2.4822013
-12.915049 3.4219499 1.8777236
-11.612894 3.0769331 -2.5535717
-13.240145 3.5080869 -2.5806501
-13.512463 3.6257062 -2.2985449
-13.676721 3.6697805 -1.3211093
-13.643579 3.6608877 -0.32796857
-12.08514 3.2427225 0.29050633
-12.067555 3.2380042 0.58266556
-11.997288 3.2191496 0.86860764
-11.982277 3.215122 1.1574336
-17.250101 4.6286011 2.0886219
-10.11804 2.7149043 -2.4822013
-12.864065 3.4517262 1.8718784
-11.60317 3.113399 -2.5535717
-13.144583 3.5269954 2.2359664
-13.145535 3.5272508 -2.5643566
-14.9413 4.0090966 2.9146645
-13.453392 3.6552067 -2.2904387
-13.596692 3.6941404 -0.9852404
-13.617024 3.6996646 -0.65803754
-13.612715 3.6984937 -0.32750434
-13.523742 3.6743202 0
-13.444847 3.652885 0.32346568
-12.059251 3.2764268 0.58275872
-11.987115 3.2568276 0.86860764
-11.968273 3.2517085 1.1570621
-17.446342 4.7400675 2.1141753
-10.109461 2.7466805 -2.4822013
-12.883736 3.5004344 1.8763318
-11.600883 3.1518908 -2.5552349
-13.076302 3.5527532 2.226239
-13.126802 3.5664742 -2.5628755
-13.779253 3.7437413 2.6902602
-13.425975 3.6956103 -2.2878449
-13.467828 3.7071307 -1.9631759
-13.494725 3.7145343 -1.6367958
-13.51066 3.7189205 -1.3073611
-13.540125 3.7270308 -0.98203164
-13.587346 3.7400291 -0.65719903
-13.581099 3.7383091 -0.32704014
-13.511483 3.719147 0
-11.975125 3.2962518 0.57921839
-12.026262 3.3103278 0.87223494
-11.982383 3.2982497 1.1594772
-9.0827417 2.5000997 -2.4661627
-12.803328 3.5242214 1.552935
-10.109678 2.7827723 -2.4845071
-11.607343 3.1950166 -2.5589774
-13.083475 3.6013343 2.2294815
-13.088373 3.6026826 -2.5576913
-12.889404 3.5479147 2.5188093
-13.406043 3.7379925 -2.2865479
-13.440199 3.7475162 -1.9609492
-13.459373 3.7528625 -1.6340082
-13.486745 3.7604947 -1.3062465
-13.508472 3.7665529 -0.98063648
-13.555624 3.7797 -0.65626734
-13.5667 3.7827885 -0.3269937
-13.501002 3.7644699 0
-11.979682 3.340282 0.2887423
-11.896773 3.3171647 0.57595754
-12.036359 3.3560851 0.87376964
-12.028926 3.3540125 1.1650507
-9.0818558 2.5322843 -2.4681885
-12.801138 3.5693276 1.5540965
-10.100395 2.8162823 -2.4845071
-12.69617 3.5400596 1.8523941
-11.604221 3.2355928 -2.5606406
-13.113284 3.656363 2.2366147
-13.078248 3.646594 -2.5580616
-13.388535 3.7784796 -2.2855752
-13.424547 3.7886426 -1.9603925
-13.439869 3.7929668 -1.6330789
-13.457617 3.7979753 -1.3045745
-13.496573 3.8089697 -0.98063648
-13.54753 3.8233507 -0.65645373
-13.562448 3.8275604 -0.3271794
-13.510283 3.8128388 0
-11.982599 3.3816996 0.28906727
-11.949744 3.3724272 0.57903206
-11.979673 3.3808739 0.87042129
-15.533178 4.3837352 1.5057784
-9.079443 2.5623782 -2.4697082
-13.053689 3.6839797 1.5861541
-10.085879 2.8464119 -2.4831235
-12.717391 3.5890706 1.857126
-11.597765 3.2730927 -2.5614722
-13.059161 3.6855245 -2.5565803
-13.38419 3.8226907 -2.2868721
-13.410673 3.830255 -1.9601141
-13.427887 3.8351712 -1.6330789
-13.449448 3.8413293 -1.3049459
-13.480704 3.8502567 -0.98035747
-13.545056 3.8686364 -0.65691954
-13.565736 3.8745425 -0.32755077
-13.550161 3.8700943 0
-12.029593 3.4358015 0.29045993
-12.008246 3.4297044 0.58238608
-11.953646 3.4141097 0.86930519
-9.067627 2.5898268 -2.4686949
-13.0516 3.727699 1.5873156
-10.091857 2.8823597 -2.4868124
-15.743545 4.496552 2.3010881
-11.593068 3.3111243 -2.5627196
-12.923058 3.6909859 2.2080817
-13.045629 3.7259936 -2.55621
-11.176568 3.1921666 2.1899793
-13.388502 3.871985 -2.2897904
-13.416925 3.8802052 -1.9628977
-13.430361 3.8840907 -1.6349373
-13.455766 3.8914378 -1.3068038
-13.498528 3.9038048 -0.98258966
-13.559023 3.9212999 -0.65822393
-13.610435 3.9361689 -0.3289434
-13.581442 3.9277837 0
-11.993165 3.4684503 0.28985643
-11.948009 3.4553909 0.86972368
-11.967483 3.4610231 1.162264
-9.0664234 2.6220303 -2.470721
-16.176353 4.6782379 1.969219
-10.082244 2.9158077 -2.4868124
-12.577892 3.6375549 1.8401469
-11.59518 3.3533521 -2.5656304
-11.225336 3.2463925 1.9198314
-13.012433 3.7632248 -2.5521367
-12.712233 3.6764064 2.4932582
-13.404683 3.9223413 -2.2946539
-13.436982 3.9317923 -1.9676294
-13.456223 3.9374225 -1.6395833
-13.477876 3.943758 -1.310148
-13.541727 3.9624419 -0.98663557
-21.442856 6.2743893 -0.5187149
-21.915077 6.4125657 0
-13.459835 3.9384792 0.32560107
-10.082372 2.9502006 -2.4891181
-11.586465 3.3903129 -2.5660465
-11.235916 3.287739 1.9233979
-13.025068 3.8112621 -2.5569506
-13.449066 3.9812403 -2.3043811
-13.500527 3.9964738 -1.9787632
-13.499024 3.9960291 -1.6463201
-13.574258 4.0182996 -1.3207376
-21.602356 6.3948059 -1.5753802
-26.397753 7.8143563 -1.2838393
-21.51123 6.3678308 -0.52085024
-21.706884 6.4257488 0
-13.549008 4.0108256 0.3280614
-13.539864 4.0081182 0.65850335
-11.991106 3.5496495 0.87446713
-13.383313 3.9617758 1.3021593
-13.626643 4.0338073 1.6618843
-10.082385 2.9846234 -2.4914236
-11.583261 3.4289179 -2.5677097
-11.221748 3.3219018 1.9227495
-12.947071 3.8326378 -2.5439899
-11.007836 3.2585785 2.1629469
-15.532356 4.6540198 -2.6639645
-23.928457 7.1697764 -2.3304732
-21.575296 6.4646897 -1.5749617
-22.171854 6.6434383 -0.53737634
-21.854052 6.548214 0
-19.96348 5.9817348 0.48385227
-13.580082 4.0690527 0.66111207
-13.455942 4.0318561 1.3105196
-9.0501032 2.7117176 -2.4732537
-10.068703 3.0169244 -2.4905014
-12.549982 3.7603998 1.8412602
-11.579321 3.4695568 -2.5693729
-11.208779 3.35853 1.9224253
-12.939937 3.8772435 -2.5451007
-10.74092 3.2183437 2.1125855
-15.306121 4.6386852 -2.6276495
-23.814335 7.2171912 -2.3215554
-21.495689 6.5145006 -1.5706367
-21.450222 6.500721 -1.0452391
-21.785521 6.6023374 0
-20.181864 6.1163316 0.48960856
-19.316481 5.8540678 0.94126481
-13.537435 4.1026659 0.98914677
-13.435585 4.0717993 1.3097764
-10.07035 3.0519283 -2.493268
-12.522943 3.7952132 1.8390335
-11.577725 3.5087545 -2.5714521
-11.192506 3.3920097 1.9214524
-12.935216 3.920157 -2.546582
-10.74016 3.2549214 2.1144369
-15.301976 4.6928897 -2.629595
-23.634159 7.2482467 -2.3063211
-21.567432 6.6144123 -1.5774728
-21.7246 6.6626134 -1.0596799
-19.685486 6.0372472 -0.47804958
-23.285536 7.1413293 0
-20.541876 6.2998891 0.49884644
-19.300781 5.9192638 0.94145113
-16.743517 5.1349888 1.2246447
-13.33208 4.0887518 1.6307559
-10.065756 3.0870185 -2.4946516
-12.411828 3.806524 1.8245595
-11.569767 3.5482764 -2.5722837
-11.186857 3.4308436 1.9224253
-12.914629 3.9607255 -2.5451007
-10.787558 3.3083844 2.1259165
-15.10997 4.6859856 -2.5991163
-23.615076 7.3236346 -2.3066926
-21.521774 6.674449 -1.5756593
-21.552816 6.6840754 -1.0523196
-19.469721 6.0380549 -0.47326815
-23.66605 7.3394427 0
-20.707228 6.4218369 0.5033493
-13.246539 4.108088 0.64676434
-16.614872 5.1526937 1.2164135
-12.992476 4.0292969 1.2690897
-13.322964 4.1317897 1.6312205
-10.067162 3.1220822 -2.4974182
-11.5623 3.5857627 -2.5731153
-11.162829 3.4618769 1.9201555
-12.969704 4.0222344 -2.5584319
-10.848446 3.3643785 2.1399879
-23.61916 7.4108481 -2.3094795
-19.682337 6.1756134 -0.47893158
-22.893538 7.1831741 0
-16.643379 5.2220974 1.2197616
-13.326247 4.1813002 1.6333112
-10.062323 3.1571975 -2.4988015
-12.337855 3.8711782 1.8173225
-11.550345 3.6240854 -2.5731153
-11.143755 3.4965122 1.9188585
-12.995674 4.0775781 -2.5662081
-10.837229 3.4003353 2.1399879
-21.461109 6.8078628 -1.5744036
-21.671068 6.8744659 -1.0602388
-20.377541 6.4641342 0.49633968
-17.920073 5.6845803 1.3146305
-13.017435 4.1293721 1.2741059
-13.345235 4.2333565 1.6372603
-10.070906 3.1946785 -2.5034127
-11.548226 3.6633122 -2.5751944
-11.17034 3.5434394 1.9253434
-13.022141 4.1308656 -2.5739846
-10.805885 3.4278278 2.1359146
-15.882769 5.0963407 -2.7404854
-23.669411 7.5948582 -2.3191402
-23.689592 7.6013346 -1.7397264
-19.379314 6.2182856 -0.47252542
-20.403587 6.5469465 0.49750024
-13.080203 4.1970749 0.64061534
-12.97902 4.1646085 1.2716907
-9.0216656 2.8948028 -2.4803448
-10.05655 3.2268684 -2.5024903
-12.073099 3.8739233 1.7819725
-11.550917 3.7063694 -2.578521
-11.111548 3.5653882 1.9172373
-12.970943 4.1620164 -2.5665784
-10.813174 3.4696484 2.1396177
-14.864217 4.8210735 -2.5673406
-23.527992 7.6310906 -2.3076217
-23.783258 7.7138834 -1.7483763
-24.796043 8.0423708 -1.2156411
-19.082005 6.1890745 -0.46574786
-22.912945 7.4316053 0
-20.525562 6.65728 0.50098187
-13.26079 4.3010168 0.65011835
-12.929727 4.1936393 0.95050168
-9.0088463 2.9219375 -2.4793317
-12.514556 4.0589824 1.5385323
-10.053767 3.260848 -2.5043349
-13.129053 4.2582889 1.9397948
-11.539216 3.7426398 -2.578521
-11.190401 3.6295049 1.932801
-12.97089 4.2069902 -2.5691705
-10.772307 3.4939001 2.1336927
-32.494495 10.652226 -4.8059258
-23.447136 7.6863546 -2.3020482
-23.618614 7.7425675 -1.7380522
-24.385275 7.9938917 -1.1967283
-22.663326 7.429409 0
-13.262401 4.3476319 0.65086371
-17.895014 5.8662782 1.3168627
-9.0069761 2.9526341 -2.4813576
-12.856617 4.2146091 1.5822049
-10.050872 3.2948399 -2.5061796
-13.136313 4.3062983 1.9428567
-11.519966 3.7764332 -2.5768578
-11.15644 3.6572633 1.92891
-12.953876 4.2464919 -2.5684299
-10.766881 3.5295596 2.1348038
-15.621434 5.1783943 -2.7038462
-25.162394 8.3411551 -2.473155
-23.689392 7.8528652 -1.7451675
-25.194921 8.3519382 -1.2378149
-19.280773 6.3914394 -0.47159696
-24.161091 8.0092306 0
-20.954721 6.9463415 0.51254082
-13.348417 4.4249058 0.65580153
-17.093327 5.6663165 1.2592438
-9.0026455 2.984313 -2.4828773
-12.868967 4.2659712 1.5854571
-10.047278 3.3306015 -2.5080237
-11.614251 3.8500416 1.719623
-11.520378 3.8189235 -2.5797687
-11.033726 3.6576016 1.9097799
-12.954646 4.294373 -2.5713925
-10.742059 3.5609162 2.1322117
-23.6562 7.9290271 -2.3276863
-26.754251 8.9674234 -1.9731317
-25.697483 8.6132183 -1.2639017
-19.117289 6.4076853 -0.46811536
-25.913145 8.685504 0
-13.399969 4.4913683 0.65906239
-17.140656 5.7451625 1.2641269
-8.9926996 3.0141509 -2.4828773
-12.513842 4.1943583 1.5434107
-10.04356 3.3663754 -2.5098684
-11.597664 3.8872762 1.7190663
-11.509506 3.8577275 -2.5801845
-11.16375 3.741838 1.9344221
-12.966424 4.3460536 -2.5765767
-10.769324 3.6096356 2.1399879
-15.834408 5.3627305 -2.7466462
-23.419931 7.9317636 -2.3068786
-25.624254 8.6783152 -1.8917955
-25.689217 8.7003155 -1.2648333
-19.35462 6.5549412 -0.47442868
-26.632088 9.0196438 0
-22.962307 7.7767777 0.56286186
-13.096278 4.4353924 0.64480788
-17.186769 5.8207431 1.2688702
-12.799198 4.3347783 1.2607294
-8.9868517 3.0436292 -2.4838903
-12.197682 4.1310596 1.5060101
-10.040307 3.400409 -2.5117128
-11.977451 4.0564728 1.7772406
-11.506595 3.8970051 -2.5822635
-11.179978 3.7863882 1.9392858
-12.9676 4.3918118 -2.5795393
-10.733732 3.6352551 2.135174
-23.25547 7.957593 -2.2931304
-19.203312 6.5710187 -1.4192652
-18.877724 6.4596086 -0.93045747
-19.27907 6.5969419 -0.47308248
-24.626183 8.4266253 0
-20.627905 7.0584879 0.50618106
-13.084169 4.4771614 0.64490104
-17.089115 5.84758 1.2630107
-12.192162 4.1719327 1.5069393
-10.025892 3.4306753 -2.5107906
-11.447461 3.9171097 1.700417
-11.494294 3.9331353 -2.5822635
-12.970473 4.4382563 -2.5828719
-10.753871 3.679776 2.1414692
-15.994386 5.5291719 -2.7803671
-23.531488 8.1347075 -2.3228559
-19.080751 6.5961118 -1.4117315
-19.305494 6.6738038 -0.47424302
-24.563675 8.4915285 0
-19.647535 6.7920456 0.4826453
-13.047382 4.5104089 0.64378303
-17.038607 5.8901534 1.260639
-12.180873 4.2108617 1.5071715
-10.029779 3.4672401 -2.5144794
-11.494824 3.9736981 -2.5851743
-11.01794 3.8088417 1.9152919
-12.945321 4.4751272 -2.5806501
-10.697677 3.6981285 2.1325819
-18.962547 6.6257277 -1.8740021
-19.026752 6.6481619 -1.4093598
-18.771492 6.5589705 -0.92728972
-19.451248 6.7964859 -0.47837451
-19.703827 6.8847394 0
-19.711733 6.8875017 0.4847807
-13.021037 4.5496974 0.643224
-17.035931 5.9525466 1.2618946
-12.241854 4.277442 1.5164636
-10.021902 3.5017655 -2.5154018
-11.683684 4.0824108 1.7393855
-11.47789 4.0105042 -2.5843425
-11.685275 4.0829668 2.0336399
-12.954531 4.5264592 -2.585464
-10.705765 3.7407148 2.1366553
-15.906234 5.6139565 -2.7712882
-18.962294 6.692564 -1.8760457
-18.994482 6.7039251 -1.4085227
-18.666016 6.587996 -0.92309731
-19.239365 6.7903538 -0.47368595
-22.081066 7.7933054 0
-20.193413 7.1270766 0.49717525
-13.147973 4.6404543 0.65021157
-12.202129 4.3066273 1.5132114
-10.020025 3.536474 -2.5177073
-11.708153 4.1322832 1.7449526
-11.472611 4.0491509 -2.5860059
-11.640751 4.1084943 2.0281277
-13.019939 4.5952659 -2.601387
-10.693958 3.7743325 2.1366553
-23.572775 8.4077959 -2.3349319
-18.538691 6.6122684 -0.91787988
-22.087128 7.8779039 0
-20.585873 7.3424449 0.50743443
-13.313953 4.7487411 0.98844928
-12.574147 4.4848714 1.2454952
-12.197137 4.3504014 1.5143729
-10.015575 3.5722954 -2.5195518
-11.629096 4.1477962 1.7352103
-11.466493 4.0897999 -2.5876691
-11.541557 4.1165733 2.0132127
-13.026845 4.6463366 -2.6058307
-15.683976 5.6496711 -2.7388642
-21.473749 7.7352586 -2.6691432
-19.546305 7.0409565 -1.9382833
-18.783739 6.7662654 -1.3961061
-19.444469 7.0042729 -0.96381116
-18.924232 6.8168736 -0.46700123
-19.834402 7.1447349 0
-20.081131 7.2336106 0.49555048
-22.156733 7.9812827 1.098251
-13.237026 4.7682323 0.98384535
-12.72299 4.5830665 1.2616584
-8.9413271 3.2208388 -2.4879422
-12.196492 4.3934121 1.5159991
-9.9988117 3.6017649 -2.5181687
-11.627187 4.1883373 1.7368804
-11.459108 4.1277919 -2.5889165
-11.37817 4.0986366 1.9869492
-13.006637 4.6852417 -2.6047199
-11.636446 4.1916728 2.3303244
-15.604948 5.6766486 -2.7281642
-21.300001 7.7483516 -2.6505592
-19.539061 7.1077704 -1.9397696
-18.721142 6.8102341 -1.3930368
-19.302952 7.0218806 -0.47688904
-25.959721 9.443429 0
-20.015093 7.2809372 0.49448282
-22.390642 8.1450958 1.1111079
-12.723501 4.628458 1.2631446
-8.923893 3.2462654 -2.4859164
-11.928747 4.3393488 1.484406
-10.009394 3.6411407 -2.5237019
-11.496716 4.1821876 1.7193447
-11.4516 4.1657758 -2.5901639
-11.279926 4.1033254 1.9720341
-13.045418 4.7455626 -2.6154587
-11.567812 4.2080503 2.3192153
-15.609116 5.739944 -2.7323792
-21.244858 7.812377 -2.6470745
-19.059965 7.0089259 -1.8946241
-18.678528 6.8686595 -1.3916416
-18.523808 6.8117642 -0.92039543
-20.150942 7.410111 0.49847507
-17.905033 6.5842223 0.8896504
-14.671575 5.3951821 1.4584035
-8.9034262 3.2740591 -2.4833837
-12.094374 4.4474669 1.5069393
-9.9929686 3.6747169 -2.5227797
-11.558259 4.2503214 1.7307569
-11.44066 4.207077 -2.5909958
-11.421124 4.199893 1.9992704
-13.034307 4.7931089 -2.6165695
-11.538294 4.2429795 2.3162527
-15.570655 5.781394 -2.7288127
-21.14572 7.8514185 -2.6377826
-19.099459 7.0916409 -1.900755
-19.02532 7.0641131 -1.4191258
-18.766394 6.9679732 -0.93353194
-19.012281 7.0592718 -0.47085422
-19.752377 7.3340697 0
-17.880516 6.6390467 0.88946408
-13.292661 4.9355731 0.9915185
-12.578648 4.6704593 1.2518119
-8.387044 3.1141145 -2.3420694
-12.158556 4.5144792 1.5166959
-9.9959707 3.7115099 -2.5264685
-11.273774 4.1859593 1.6901183
-11.423719 4.2416339 -2.5901639
-11.252463 4.1780467 1.9720341
-13.091043 4.8607121 -2.6310115
-11.55623 4.2908354 2.3225482
-15.520168 5.815105 -2.7229764
-21.24324 7.9594293 -2.6528821
-22.686636 8.5002413 -2.2602468
-18.79129 7.040731 -1.4032212
-18.934587 7.0944219 -0.94294178
-19.597893 7.3429494 -0.48589483
-19.73802 7.395452 0
-19.719595 7.3885489 0.48891222
-17.898153 6.70609 0.89132738
-12.618812 4.7280231 1.2571995
-12.055819 4.5170808 1.5055455
-9.9903812 3.7432015 -2.5278521
-11.28727 4.2291203 1.6940151
-11.427571 4.2816887 -2.5939066
-13.100488 4.9084983 -2.6358254
-11.626269 4.3561373 2.3392117
-15.576475 5.8951807 -2.7362702
-20.965921 7.9349079 -2.6215215
-21.464508 8.1236067 -2.1411593
-19.006683 7.1934013 -1.4210789
-18.720373 7.085042 -0.93343878
-19.573437 7.4078984 -0.48589483
-19.861156 7.5167913 0
-23.0741 8.7327843 0.57279605
-22.261156 8.4251118 1.10999
-13.274449 5.0239401 0.99249512
-12.817245 4.8509035 1.2785647
-8.323884 3.1503148 -2.3299134
-11.99247 4.5387535 1.4995056
-8.387126 3.1742501 -2.1248343
-11.241693 4.2546096 1.6892833
-11.41514 4.3202534 -2.5943224
-11.64498 4.4072404 2.0456369
-13.085978 4.95261 -2.6361957
-11.622789 4.3988414 2.3414335
-15.544973 5.9391532 -2.7340004
