# .PCD v0.7 - Point Cloud Data file format
VERSION 0.7
FIELDS x y z
SIZE 4 4 4
TYPE F F F
COUNT 1 1 1
WIDTH 1
HEIGHT 487
VIEWPOINT 0 0 0 1 0 0 0
POINTS 487
DATA ascii
10.061475 -9.0118084 -1.8983212
10.06614 -9.1338224 -1.9102901
10.053484 -9.1800909 -1.913352
10.021614 -9.2703743 -1.9186405
10.00114 -9.3099098 -1.9203105
9.970212 -9.3430233 -1.9203105
9.9537792 -9.386529 -1.9228158
9.937171 -9.4300222 -1.9253209
9.8986845 -9.4560833 -1.9239291
9.8646469 -9.483017 -1.923094
9.8402615 -9.5225639 -1.9244858
9.808877 -9.5520487 -1.9242073
9.7717485 -9.5758858 -1.9228158
9.7399387 -9.6082382 -1.9228158
9.701272 -9.6304169 -1.9211457
9.666481 -9.6597347 -1.9205889
9.6305008 -9.6844378 -1.9194756
9.6014204 -9.7160549 -1.9197539
9.569149 -9.7478399 -1.9197539
9.5340052 -9.7766829 -1.9191972
9.5090904 -9.8091936 -1.9200323
9.4833794 -9.8478069 -1.921424
9.4660883 -9.8918591 -1.9242073
9.4373274 -9.9275026 -1.9250425
9.4165926 -9.9717016 -1.9275476
9.4014816 -10.018567 -1.9308877
9.3699617 -10.048054 -1.9308877
9.3073874 -10.044029 -1.9244858
9.2512255 -10.050066 -1.9197539
9.2169342 -10.076157 -1.9191972
9.1861334 -10.109597 -1.9197539
9.186182 -10.173686 -1.9264343
9.1250763 -10.170063 -1.9203105
10.286649 -11.464657 -1.8012651
9.0649462 -10.170696 -1.9147437
10.272366 -11.525398 -1.8054465
9.0272303 -10.196254 -1.9139086
10.272277 -11.602533 -1.8121834
8.9912281 -10.220101 -1.9130735
10.27645 -11.680981 -1.8193846
8.9512558 -10.239351 -1.9114034
10.277618 -11.756579 -1.8261214
8.9164457 -10.264432 -1.9108468
10.28753 -11.842796 -1.8344842
8.886241 -10.298442 -1.9116819
10.292325 -11.927981 -1.8423824
8.8409519 -10.311273 -1.9088984
10.285833 -11.996449 -1.8479577
8.8067102 -10.340534 -1.9088984
10.276908 -12.066789 -1.853533
8.7716217 -10.365126 -1.9083418
10.244081 -12.105079 -1.8544621
8.7390165 -10.392631 -1.9083418
10.206001 -12.137202 -1.8544621
8.7095833 -10.427634 -1.9094551
10.121127 -12.117619 -1.8463316
8.6679268 -10.444276 -1.9075066
10.069054 -12.13254 -1.8437762
8.627512 -10.462287 -1.9058366
10.029624 -12.16258 -1.843544
8.5915146 -10.489307 -1.9055582
9.9804258 -12.185017 -1.8419179
8.5560188 -10.513175 -1.9050015
9.944603 -12.219392 -1.8423824
8.5229502 -10.540002 -1.9050015
9.9036694 -12.247484 -1.8419179
8.4854708 -10.56512 -1.9044449
9.8629999 -12.280259 -1.8419179
8.4398832 -10.576245 -1.9016614
9.8256102 -12.312737 -1.8421502
8.4059954 -10.605726 -1.9019397
9.782259 -12.342138 -1.8416857
8.3787622 -10.639862 -1.9033315
9.739749 -12.368127 -1.8409886
9.6986818 -12.400357 -1.8409886
9.6584578 -12.429196 -1.8407563
9.6111202 -12.453294 -1.8395948
9.5695314 -12.480274 -1.8391303
9.5278702 -12.507115 -1.8386657
9.4815474 -12.532305 -1.8377364
9.4385481 -12.557267 -1.8370396
9.3990526 -12.586858 -1.8370396
9.3548937 -12.614764 -1.8365749
9.3246441 -12.656888 -1.8384334
9.2720652 -12.673308 -1.8363426
9.2287006 -12.697556 -1.8356458
9.1911926 -12.734531 -1.8365749
9.1430387 -12.752045 -1.8349488
9.1121531 -12.793649 -1.8368073
9.0627947 -12.814064 -1.8354135
9.023634 -12.844098 -1.8356458
8.9809656 -12.869125 -1.8351812
8.938241 -12.898836 -1.8351812
8.895421 -12.92358 -1.8347166
8.850275 -12.949727 -1.8342519
8.7983913 -12.961032 -1.8319288
8.7575836 -12.993432 -1.8323935
8.7123003 -13.014277 -1.8314643
8.6702709 -13.03993 -1.8312321
8.6215096 -13.06032 -1.8300705
8.5717239 -13.074051 -1.8282121
8.5371122 -13.110904 -1.8296059
8.4914312 -13.135805 -1.8291414
8.449048 -13.160745 -1.8289089
8.4042921 -13.187015 -1.8286767
8.3596344 -13.208317 -1.8279798
8.3180981 -13.234515 -1.8279798
8.2773209 -13.267081 -1.8286767
8.2251377 -13.276134 -1.8263537
8.1789856 -13.299953 -1.8258891
8.1371632 -13.325582 -1.8258891
8.0962896 -13.352778 -1.8261214
8.0553255 -13.379849 -1.8263537
8.006835 -13.399668 -1.8254244
7.9562764 -13.415894 -1.8240306
7.9100595 -13.433976 -1.8231015
7.8648081 -13.453614 -1.8224045
7.8175187 -13.469666 -1.821243
7.7652464 -13.476947 -1.81892
7.7145958 -13.492277 -1.8175262
10.080075 -9.088892 -1.9075066
10.068344 -9.251832 -1.9217023
11.732483 -14.898622 -1.76922
11.668291 -14.918622 -1.7669905
11.598148 -14.925329 -1.7634606
11.525475 -14.933755 -1.7599307
11.473654 -14.96357 -1.7591877
11.415728 -14.985283 -1.7575155
11.358763 -15.013529 -1.7564008
11.31154 -15.04914 -1.7564008
11.265399 -15.086198 -1.7565867
11.209377 -15.115474 -1.7556578
11.150024 -15.134583 -1.7537999
11.109184 -15.184332 -1.7552862
11.057912 -15.214324 -1.7547288
11.002735 -15.24445 -1.7539856
10.950149 -15.272469 -1.7532425
10.881322 -15.277598 -1.7498984
10.832899 -15.31685 -1.75027
10.774423 -15.336143 -1.748598
10.72619 -15.369916 -1.748598
10.664956 -15.39067 -1.746926
10.609776 -15.414255 -1.7458111
10.558603 -15.449353 -1.7458111
10.501068 -15.469269 -1.744325
10.450825 -15.505655 -1.7445107
10.397631 -15.531795 -1.7437676
10.341065 -15.552774 -1.7424672
10.288337 -15.585319 -1.7422812
10.226221 -15.597578 -1.7400519
10.18043 -15.634636 -1.7406093
10.132853 -15.674998 -1.7413523
10.070646 -15.686645 -1.7391229
10.018574 -15.719953 -1.7391229
9.9680738 -15.749669 -1.7389373
9.9121866 -15.77079 -1.7378224
9.8514032 -15.790058 -1.7363362
9.7975512 -15.814157 -1.735593
9.7429695 -15.843167 -1.7352215
9.6786213 -15.849905 -1.7326205
9.6256819 -15.875124 -1.7320633
9.5860329 -15.922345 -1.7339209
9.5178576 -15.928407 -1.7311343
9.4619379 -15.954742 -1.7305769
9.4057055 -15.974092 -1.7294621
9.3524599 -15.998405 -1.7289048
9.2931585 -16.012207 -1.7272329
9.2368422 -16.03097 -1.7261181
9.1727581 -16.042498 -1.7240745
9.11656 -16.067633 -1.7235171
9.0670156 -16.097927 -1.723703
9.0076513 -16.110689 -1.7220308
8.9531288 -16.131943 -1.7212877
8.8986235 -16.159801 -1.721102
8.8353949 -16.164961 -1.7186867
8.7950315 -16.218678 -1.7212877
8.7317667 -16.223434 -1.7188725
8.6788807 -16.247271 -1.7185009
8.6155882 -16.265148 -1.7172004
8.5635214 -16.290375 -1.7170147
8.5141439 -16.320726 -1.7173862
8.4609976 -16.343859 -1.7170147
8.4031143 -16.364742 -1.7162716
8.3497047 -16.394289 -1.7164574
8.2846861 -16.39378 -1.7136705
8.2411776 -16.435747 -1.7153426
8.1753092 -16.433031 -1.71237
8.1242971 -16.467196 -1.7131133
8.069644 -16.494045 -1.7131133
8.017786 -16.519316 -1.7131133
7.9615293 -16.53545 -1.7121843
7.9129763 -16.567568 -1.7129275
7.8631082 -16.604517 -1.7140422
7.810904 -16.629137 -1.7140422
7.7632813 -16.671194 -1.7157142
7.7133741 -16.700926 -1.7162716
7.6675029 -16.739557 -1.7177578
7.6173468 -16.769005 -1.7183152
7.5579491 -16.793674 -1.7181293
7.5202675 -16.8433 -1.7209162
7.4603424 -16.859039 -1.7199872
7.4153414 -16.900631 -1.7218451
7.370153 -16.942104 -1.723703
7.2881188 -16.914692 -1.7183152
7.2435474 -16.957647 -1.7203587
7.213397 -17.026739 -1.7251891
7.1515017 -17.037712 -1.7238886
7.09794 -17.060097 -1.7238886
7.0519505 -17.109314 -1.7264897
7.0177565 -17.187916 -1.7320633
6.9749298 -17.237566 -1.7348499
6.9222236 -17.263088 -1.7352215
6.8819261 -17.319912 -1.7387514
6.8185129 -17.336416 -1.7380083
6.7726912 -17.38002 -1.7402377
6.7316852 -17.436506 -1.7437676
6.6733155 -17.448267 -1.7428386
6.6290512 -17.49708 -1.7456255
6.5688958 -17.513372 -1.7450681
6.5211797 -17.563061 -1.7478547
6.4714694 -17.598415 -1.749341
6.4236445 -17.63924 -1.7513846
6.3709016 -17.666828 -1.7521279
6.3089337 -17.678478 -1.7511989
6.2626514 -17.724499 -1.7537999
6.2104135 -17.763966 -1.7556578
6.1597848 -17.798443 -1.757144
6.1122303 -17.842197 -1.7595593
6.0588531 -17.889832 -1.7621602
6.0070515 -17.921993 -1.7634606
5.9569869 -17.949188 -1.7643896
4.2274127 -18.562031 -1.776094
5.9061255 -17.995333 -1.7669905
5.8624773 -18.053572 -1.770892
5.8056226 -18.082394 -1.771821
5.7456264 -18.101545 -1.771821
5.6929049 -18.132807 -1.7731215
5.6530375 -18.205755 -1.7785093
5.596983 -18.227232 -1.7788807
5.5399795 -18.257124 -1.7799954
5.4799776 -18.277302 -1.7801813
5.433847 -18.332611 -1.7838968
5.3711891 -18.332394 -1.7822248
5.3240933 -18.385519 -1.7857547
5.2751412 -18.445196 -1.789842
5.2209821 -18.487499 -1.7922571
5.1666245 -18.517237 -1.7935576
5.1052499 -18.52186 -1.792443
5.0580211 -18.578157 -1.7963444
4.9989691 -18.604443 -1.7972734
4.9471369 -18.645077 -1.7996885
4.8862882 -18.665232 -1.80006
4.8351011 -18.709412 -1.8028468
4.7841735 -18.755381 -1.8058194
4.7162485 -18.762312 -1.8048904
4.6601572 -18.788633 -1.8060052
3.831903 -15.647863 -1.8839645
4.6067591 -18.812048 -1.8069341
3.7846522 -15.679795 -1.8862876
4.5415463 -18.815605 -1.8058194
3.7362952 -15.695473 -1.8867521
4.4796481 -18.818159 -1.8047047
3.690578 -15.734851 -1.8900043
4.4190402 -18.840662 -1.8054478
3.63972 -15.752809 -1.8907011
4.3462267 -18.810589 -1.8011748
3.5950649 -15.785472 -1.8932565
3.5506752 -15.819947 -1.8960441
3.5031037 -15.840722 -1.8972057
3.4539337 -15.867778 -1.8990639
3.4033771 -15.888858 -1.9002255
3.357543 -15.918908 -1.9025486
3.3095345 -15.939104 -1.9037101
3.262229 -15.963045 -1.9053363
3.2073185 -15.964037 -1.9041747
3.1555164 -15.980433 -1.9048717
3.0996177 -15.961017 -1.9013871
13.590693 -19.08161 -1.6381611
13.457067 -19.027212 -1.6296507
13.373137 -19.03511 -1.626721
13.309845 -19.072123 -1.6263025
13.195391 -19.042358 -1.6200243
13.120797 -19.062355 -1.6182108
13.057512 -19.105759 -1.6182108
12.995184 -19.143385 -1.6179316
12.905984 -19.148321 -1.6147228
12.755864 -19.054482 -1.6034224
12.685997 -19.079508 -1.6021667
12.686409 -19.218044 -1.6102585
12.63144 -19.266148 -1.6109561
12.56432 -19.295702 -1.6101189
12.497014 -19.332235 -1.6097003
12.431906 -19.364685 -1.6091423
12.370842 -19.410852 -1.6095608
12.301262 -19.436132 -1.6084447
12.218907 -19.440899 -1.6056546
12.156486 -19.484697 -1.6059335
12.091008 -19.516008 -1.6053755
12.020998 -19.547499 -1.6046779
11.957451 -19.581762 -1.604399
11.886563 -19.603874 -1.6031432
11.815656 -19.625736 -1.6018876
11.759719 -19.680225 -1.6031432
11.689305 -19.710535 -1.6024458
11.620239 -19.735125 -1.601469
11.557175 -19.769812 -1.6013297
11.491006 -19.79912 -1.6007717
11.423766 -19.826479 -1.6000741
11.354984 -19.859056 -1.5996555
11.288082 -19.894867 -1.5995159
11.226505 -19.931969 -1.5996555
11.146308 -19.935795 -1.5971442
11.083622 -19.970715 -1.5971442
11.014448 -20.002115 -1.5967257
10.959208 -20.050623 -1.5978417
10.8841 -20.071072 -1.5965861
10.810589 -20.08584 -1.5950515
10.753076 -20.130262 -1.5958885
10.672469 -20.148281 -1.5943539
10.60169 -20.167582 -1.5932378
10.532745 -20.190176 -1.5924008
10.468346 -20.221394 -1.5922612
10.392118 -20.238251 -1.5908662
10.328571 -20.279711 -1.5914242
10.277408 -20.336988 -1.5933774
10.204524 -20.351339 -1.5919822
10.136984 -20.376154 -1.5914242
10.068477 -20.407866 -1.5912846
10.003376 -20.44652 -1.5917032
9.93822 -20.476051 -1.5915638
9.8686495 -20.496386 -1.5907266
9.8085108 -20.536289 -1.5914242
9.7523117 -20.593946 -1.5933774
9.6901102 -20.6299 -1.5937959
9.6410151 -20.703518 -1.5970047
9.5826178 -20.748196 -1.5981208
9.5256977 -20.796337 -1.5995159
9.4594908 -20.824345 -1.5993764
9.3965702 -20.879068 -1.6010506
9.3321409 -20.90139 -1.6006321
9.2845764 -20.981483 -1.604399
9.2130032 -20.997759 -1.6034224
9.1533566 -21.041237 -1.6045384
9.0869608 -21.089548 -1.605794
9.0300646 -21.140009 -1.6074681
8.9525118 -21.131804 -1.6048174
8.9063272 -21.218405 -1.6091423
8.8534184 -21.279438 -1.6116537
8.7759609 -21.292078 -1.6103979
8.725667 -21.370935 -1.6141648
8.6712093 -21.429684 -1.6165366
8.6075554 -21.466078 -1.6172341
8.5555449 -21.53195 -1.6201639
8.5007811 -21.61367 -1.6240703
8.43501 -21.645847 -1.6244888
8.3719978 -21.685266 -1.6254654
8.3159447 -21.743139 -1.6278371
8.263855 -21.812071 -1.6310459
8.1900778 -21.835615 -1.6307667
8.1315126 -21.900064 -1.6335571
8.0702448 -21.9461 -1.6350917
7.9992104 -21.965721 -1.6346732
7.9470854 -22.037664 -1.6381611
7.8786554 -22.077049 -1.6391376
7.8225522 -22.139317 -1.641928
7.7576537 -22.189617 -1.6437416
7.695734 -22.236504 -1.6454157
7.6264868 -22.262459 -1.6455553
7.5698462 -22.351305 -1.6501592
7.5014935 -22.38065 -1.6505777
7.4520259 -22.453936 -1.6543446
7.3750343 -22.470942 -1.6537864
7.3167267 -22.531952 -1.6565768
7.2578268 -22.60548 -1.6602041
7.1930857 -22.661753 -1.6625758
7.1236477 -22.689949 -1.6629944
7.0677137 -22.761755 -1.6666216
6.9996843 -22.795292 -1.6674588
6.9431729 -22.881378 -1.6720626
6.8781438 -22.94059 -1.6747135
6.817378 -23.000341 -1.6775036
6.7568688 -23.061853 -1.6804335
6.692153 -23.109797 -1.6823866
6.6237092 -23.160635 -1.6844794
6.5484977 -23.188232 -1.6848979
6.4772282 -23.214457 -1.6853164
6.4042649 -23.234692 -1.6853164
6.3359551 -23.272022 -1.6865721
6.2551231 -23.279417 -1.6855955
15.877317 -25.627462 -1.405888
15.766082 -25.637426 -1.4035587
15.676094 -25.671486 -1.4027203
15.610903 -25.746231 -1.4041178
15.52376 -25.784876 -1.4035587
15.426896 -25.81735 -1.402534
15.341197 -25.868366 -1.402534
15.266951 -25.928484 -1.4031861
15.169286 -25.948723 -1.4016955
15.042565 -25.918493 -1.3975029
14.938123 -25.92581 -1.3953601
14.860001 -25.989079 -1.3961054
14.759933 -26.013889 -1.3948011
14.670293 -26.046202 -1.3940557
14.569871 -26.059029 -1.3922856
14.483086 -26.095942 -1.3918198
14.403214 -26.156076 -1.3924719
14.310428 -26.181911 -1.3914471
14.225434 -26.232735 -1.3916334
14.106023 -26.208687 -1.3879999
14.022678 -26.25111 -1.3879067
13.920671 -26.280478 -1.3868819
13.85849 -26.362988 -1.3889316
13.740488 -26.339085 -1.3853912
13.652162 -26.371477 -1.3848323
13.576499 -26.439709 -1.3860434
13.479682 -26.466782 -1.3851117
13.380247 -26.476904 -1.3834348
13.280885 -26.486662 -1.3817577
13.202057 -26.537197 -1.3822235
13.102495 -26.557541 -1.3810124
13.00733 -26.586487 -1.380267
12.912401 -26.603855 -1.379056
12.815757 -26.617289 -1.3776584
12.720882 -26.633984 -1.3764473
12.620522 -26.65074 -1.3751428
12.55287 -26.724615 -1.3769131
12.456587 -26.749796 -1.3760746
12.384215 -26.814188 -1.3773788
12.293261 -26.838432 -1.3766335
12.2188 -26.89875 -1.3777516
12.140411 -26.975851 -1.3795217
12.060321 -27.011751 -1.3795217
11.988465 -27.091789 -1.3815714
11.918544 -27.164078 -1.3833416
11.848289 -27.236197 -1.3851117
11.749193 -27.268213 -1.3846459
11.676024 -27.334385 -1.3861365
11.622146 -27.433296 -1.3893975
11.542711 -27.499315 -1.3907949
11.464704 -27.555735 -1.3918198
11.383159 -27.617613 -1.3930309
11.31039 -27.701448 -1.3953601
11.196333 -27.670174 -1.3920062
11.127936 -27.751568 -1.3943353
11.063565 -27.843948 -1.3972235
10.986782 -27.934454 -1.3998321
10.929434 -28.047014 -1.4037451
10.850624 -28.10544 -1.4049563
10.767269 -28.152451 -1.4056084
10.70921 -28.266474 -1.4096147
10.631556 -28.344852 -1.4117575
10.557669 -28.434269 -1.4144593
10.484145 -28.510424 -1.4166021
10.405461 -28.573254 -1.4180928
10.329202 -28.643391 -1.4199562
10.242216 -28.700062 -1.4210742
10.157991 -28.749054 -1.4219127
10.073152 -28.812754 -1.4234034
10.015905 -28.940544 -1.4281548
9.9217014 -28.962414 -1.427689
9.8410473 -29.057426 -1.4306704
9.7598724 -29.118507 -1.432161
9.6765814 -29.156818 -1.4326268
9.6178427 -29.304537 -1.43831
9.5319014 -29.353609 -1.4392416
9.4461155 -29.421198 -1.4410119
9.387785 -29.576134 -1.4470677
9.2978134 -29.615011 -1.4475335
9.2142096 -29.674603 -1.4490242
9.1379452 -29.758789 -1.4517261
9.0467548 -29.813778 -1.4529371
8.9639034 -29.8972 -1.4555459
8.8852615 -29.976929 -1.4580613
8.7989082 -30.031536 -1.4593657
8.7289686 -30.143467 -1.4634651
8.6372004 -30.201059 -1.4648626
8.5706682 -30.34874 -1.4706389
8.4795809 -30.390909 -1.4713843
8.3883085 -30.432806 -1.4721296
8.2931833 -30.460936 -1.4722228
8.2066402 -30.542294 -1.4748315
8.1193609 -30.600752 -1.4764153
8.00772 -30.588854 -1.4745519
7.9075866 -30.598387 -1.4738066
7.8178372 -30.648243 -1.4750178
7.6942468 -30.609468 -1.47185
7.6018929 -30.649004 -1.4725955
