# .PCD v0.7 - Point Cloud Data file format
VERSION 0.7
FIELDS x y z
SIZE 4 4 4
TYPE F F F
COUNT 1 1 1
WIDTH 1507
HEIGHT 1
VIEWPOINT 0 0 0 1 0 0 0
POINTS 1507
DATA ascii
1.2800791 -17.473095 -1.6345266
1.5593281 -21.284845 -1.49237
1.2190783 -17.477455 -1.6345266
1.481827 -21.244381 -1.4891613
0.85910439 -12.900366 -1.8170441
1.1636373 -17.473251 -1.6337836
1.4146824 -21.24296 -1.4887427
0.81919897 -12.912885 -1.8184359
1.1082326 -17.46887 -1.6330403
1.3462957 -21.221416 -1.4869291
1.053586 -17.476244 -1.633412
1.2751766 -21.151854 -1.4817669
0.73523039 -12.908018 -1.8170441
0.9955129 -17.47765 -1.6332262
1.2004884 -21.076288 -1.4761865
1.5115888 -26.538099 -1.239585
0.69305766 -12.922252 -1.8187143
0.93744212 -17.478867 -1.6330403
1.1253539 -20.982534 -1.4693503
1.4234689 -26.540972 -1.2394919
0.88252735 -17.481726 -1.6330403
1.0569166 -20.936152 -1.4658626
1.3409896 -26.563271 -1.2403305
0.61278832 -12.946134 -1.8214977
0.82703686 -17.472479 -1.6319257
0.99066597 -20.929403 -1.465165
1.2587588 -26.593294 -1.2415416
0.50068033 -11.376326 -1.8708709
0.57081294 -12.96986 -1.8245595
0.76944309 -17.483082 -1.6326687
0.91722256 -20.840887 -1.4587474
1.1717973 -26.625265 -1.242846
0.46501955 -11.379814 -1.8711952
0.5305503 -12.983462 -1.8262296
0.85174602 -20.843666 -1.4587474
1.0886371 -26.640791 -1.243405
0.65987986 -17.495533 -1.633412
0.78377706 -20.780445 -1.4541434
1.005689 -26.664045 -1.2443366
0.39179307 -11.39047 -1.8724921
0.60199517 -17.501604 -1.6337836
0.71300977 -20.729095 -1.4503766
0.91849756 -26.703171 -1.2460136
0.54707068 -17.505398 -1.6339692
0.64495391 -20.637506 -1.4438195
0.83510059 -26.721901 -1.2467589
0.32088301 -11.416379 -1.8763829
0.49190667 -17.50106 -1.633412
0.57849199 -20.581596 -1.4397737
0.75159818 -26.740368 -1.2475042
0.28326726 -11.427245 -1.8780042
0.43342352 -17.484678 -1.6317399
0.50820988 -20.501625 -1.4340535
0.66326529 -26.756695 -1.2481564
0.43782461 -20.391497 -1.4262409
0.5750072 -26.78072 -1.2491813
0.21182798 -11.448531 -1.8812466
0.37746641 -20.400684 -1.4267989
0.49598673 -26.806278 -1.2502993
0.30875215 -20.332003 -1.421916
0.40727216 -26.819759 -1.2508583
0.13608085 -11.465472 -1.8838406
0.24087645 -20.29501 -1.4192652
0.31885299 -26.864912 -1.252908
0.10013008 -11.473737 -1.8851374
0.17682214 -20.261749 -1.4168935
0.23455942 -26.877766 -1.253467
0.062114213 -11.479926 -1.8861103
0.10920063 -20.182421 -1.4113129
0.1456466 -26.918352 -1.2553303
0.04559055 -20.092884 -1.4050349
0.061091803 -26.924671 -1.2556098
-0.010027132 -11.491932 -1.8880557
-0.017530078 -20.090935 -1.4048954
-0.023520708 -26.956697 -1.2571005
-0.048152674 -11.495782 -1.8887042
-0.084096201 -20.076801 -1.4039189
-0.11298856 -26.974451 -1.257939
-0.084369265 -11.509388 -1.8909738
-0.14651167 -19.986658 -1.3976407
-0.19790766 -26.997934 -1.259057
-0.21295969 -20.002022 -1.3987567
-0.28766993 -27.019104 -1.2600818
-0.15891005 -11.524389 -1.8935677
-0.27566022 -19.99128 -1.3980592
-0.37291083 -27.044039 -1.2612931
-0.33802268 -19.964382 -1.3962456
-0.45834178 -27.0707 -1.2625973
-0.23163293 -11.538949 -1.8961617
-0.39974082 -19.913355 -1.3927578
-0.54382688 -27.091097 -1.2636222
-0.46521223 -19.887985 -1.3910836
-0.63421965 -27.113111 -1.2647401
-0.30847219 -11.548996 -1.8981071
-0.53030902 -19.854422 -1.3888514
-0.72503436 -27.144812 -1.266324
-0.3448123 -11.549943 -1.8984314
-0.59178871 -19.822744 -1.3867587
-0.81126374 -27.174351 -1.2678146
-0.3814204 -11.558665 -1.9000525
-0.65287489 -19.784895 -1.3842475
-0.8974191 -27.195627 -1.2689327
-0.71659601 -19.730782 -1.3806202
-0.9888286 -27.226444 -1.2705165
-0.7775566 -19.702515 -1.3788065
-1.0752258 -27.245159 -1.2715414
-0.83630592 -19.626223 -1.3736445
-1.162768 -27.287556 -1.2736841
-0.90101868 -19.615368 -1.3730863
-1.2538015 -27.295525 -1.2742432
-0.95696568 -19.496862 -1.3649946
-1.3407233 -27.315397 -1.2753612
-1.0221372 -19.503544 -1.3656923
-1.4323435 -27.33075 -1.2762928
18.1581 -27.30945 -0.76140696
17.996941 -27.26272 -0.75843602
17.878313 -27.268959 -0.75704336
17.79147 -27.32332 -0.75699693
17.75178 -27.461086 -0.7591787
19.977896 -33.929272 0
19.760176 -33.801945 0
19.709106 -33.958992 0
21.48945 -39.316425 0
21.360865 -39.390987 0
11.407069 -51.581749 0
11.246162 -51.666195 0
11.071003 -51.6856 0
10.531731 -49.933434 0
10.388224 -50.030899 0
10.500236 -52.263641 0
10.34856 -52.408054 0
8.535533 -44.702404 0
6.2738295 -34.049496 -0.80383629
6.166471 -34.067074 -0.80378985
6.0545144 -34.093243 -0.80392915
5.9490967 -34.121941 -0.80416125
5.8449039 -34.158199 -0.80457908
5.7269588 -34.186283 -0.80476475
9.1505356 -54.622849 0
5.6214743 -34.215946 -0.80504328
5.5224771 -34.248264 -0.80541462
53.934883 25.864422 -1.3887484
53.869614 25.625292 -1.3849882
53.848595 25.408134 -1.3823886
53.894524 25.211645 -1.3814138
53.490589 24.614267 -1.3670695
52.851551 24.108137 -1.3486866
50.783199 22.961538 -1.2939554
45.785912 19.303074 -1.153623
44.688396 18.009941 -1.1186212
44.816574 17.889084 -1.1203387
44.539101 17.607307 -1.1119365
44.327961 17.363026 -1.1052982
44.352463 17.212112 -1.1045554
44.400726 17.070526 -1.1044161
44.325203 16.881857 -1.1012131
44.382816 16.73547 -1.1012595
44.408092 16.577019 -1.1005167
42.405098 14.295627 -1.0389616
40.487 10.25983 -0.96970069
40.065128 10.019087 -0.95883799
40.620544 10.0225 -0.97137183
40.32328 9.8073997 -0.96348017
27.975023 6.7110572 -1.3416028
40.493877 9.7142639 -0.96682256
26.811138 6.3378882 -1.2847711
40.255405 9.5159798 -0.96036994
39.991062 9.3209219 -0.95336026
40.00811 9.185132 -0.9530353
40.311737 9.1216249 -0.95958078
40.324585 8.9914436 -0.95920932
40.035847 8.7878084 -0.95164269
27.240299 5.8895707 -1.2996777
39.598129 8.5614328 -0.94059432
27.807749 5.9208808 -1.3258576
39.881016 8.4915447 -0.9466756
39.869816 8.3510389 -0.94574714
39.541412 8.1526518 -0.93734485
39.146915 7.9360795 -0.92736417
39.16185 7.81109 -0.92713201
28.177618 5.5282311 -1.3390874
38.90366 7.632597 -0.92044735
27.825029 5.3633003 -1.3214788
38.432034 7.4078102 -0.90870267
38.441368 7.2844191 -0.90837771
28.0005 5.2098131 -1.3281868
38.398476 7.1444755 -0.90679938
26.273542 4.8031497 -1.2455478
38.363689 7.0133882 -0.90545321
27.977623 5.0238895 -1.3255781
38.338303 6.8843379 -0.90433908
27.737497 4.8908629 -1.3134664
38.363686 6.7645445 -0.90443194
28.123663 4.8628545 -1.3309817
38.419399 6.6430874 -0.90522105
38.512188 6.5276666 -0.90689224
28.138712 4.6785159 -1.3302364
38.566032 6.4122267 -0.90768147
28.318903 4.6171026 -1.3380624
38.631371 6.2984433 -0.9087491
28.084696 4.4883933 -1.3263235
38.757584 6.1940956 -0.9112559
28.007864 4.3859143 -1.3220378
38.81044 6.0775523 -0.91204506
27.909691 4.2757735 -1.3167273
38.948959 5.9669929 -0.91483033
26.641432 3.9911072 -1.2562619
28.415085 4.1655769 -1.3392737
27.520308 3.9461353 -1.29651
28.527748 3.9991596 -1.3433729
26.929626 3.6841173 -1.2675351
28.552979 3.8148644 -1.3433729
27.055874 3.5235519 -1.2723799
26.918167 3.4196577 -1.2653923
35.719215 4.5377345 -0.83596009
28.401911 3.5175116 -1.3346153
35.832512 4.4377742 -0.8382811
26.677872 3.2141981 -1.2530943
36.178547 4.3588567 -0.84603351
28.480175 3.3355718 -1.337224
28.539568 3.2567227 -1.3395531
28.439011 3.149754 -1.3343358
38.378922 4.2506456 -0.89649379
28.409042 3.0561132 -1.3324724
37.179417 3.9995892 -0.8681767
28.415045 2.9614801 -1.3322861
37.03537 3.8599095 -0.86450934
28.285568 2.8531926 -1.3257644
37.012157 3.7334521 -0.86367375
28.531006 2.7874393 -1.3368514
37.111259 3.6257181 -0.86571628
28.599291 2.7034252 -1.3396463
37.003033 3.4978113 -0.86293101
28.43107 2.5023911 -1.3309817
36.83165 3.2417769 -0.85842812
28.273569 2.3990459 -1.323249
28.454603 2.3194008 -1.3313545
28.47768 2.2312503 -1.3320998
28.623631 2.1572473 -1.3386215
28.385885 2.0397131 -1.327162
28.738956 1.9743569 -1.3433729
28.522066 1.8644408 -1.3329383
28.658861 1.6926136 -1.3388078
28.772034 1.6035634 -1.3438388
28.745008 1.5114926 -1.3423482
27.925516 1.380448 -1.3038702
28.66037 1.3215215 -1.3379693
27.993727 1.2026687 -1.3066652
28.045473 1.1117229 -1.3089013
28.599861 1.0437113 -1.3346153
28.709845 0.86211663 -1.33946
28.736378 0.77256769 -1.340578
28.724684 0.68195951 -1.3399259
28.698822 0.58612221 -1.3386215
28.66057 0.49527451 -1.3367581
28.640013 0.40491349 -1.3357333
28.535316 0.30879748 -1.3307954
18.833481 0.14135249 -1.3170023
28.564152 0.2143849 -1.3320998
18.825836 0.085430056 -1.3164443
28.51272 0.12938832 -1.3296775
18.861927 0.023048509 -1.3189554
28.443068 0.034756273 -1.3264166
19.037479 -0.036549378 -1.3312325
28.465014 -0.054648969 -1.3274415
19.354473 -0.1013407 -1.3534151
28.350801 -0.1484458 -1.3221309
19.886709 -0.17007753 -1.3906651
28.295315 -0.33089215 -1.3196155
20.030878 -0.29718587 -1.4008495
28.328096 -0.42028657 -1.3211993
19.968006 -0.35900134 -1.3965245
28.452477 -0.5115422 -1.3270688
19.851015 -0.4227519 -1.3884329
28.386709 -0.60453004 -1.3240875
20.108793 -0.49496001 -1.4065696
28.44047 -0.70003682 -1.3266962
19.991465 -0.55492026 -1.3984778
18.665489 -0.57680392 -1.3058412
28.271767 -0.8736586 -1.3190565
20.571817 -0.70041007 -1.439355
28.17304 -0.95920938 -1.3145844
19.454884 -0.72697884 -1.3613673
20.172012 -0.82077098 -1.4117315
28.138113 -1.1449004 -1.3132801
19.958052 -0.87487739 -1.3969431
28.006639 -1.2276937 -1.3073174
20.628817 -0.96922195 -1.4440986
28.062513 -1.3184859 -1.3101124
20.703381 -1.0379202 -1.4495395
27.934525 -1.4004383 -1.3043361
20.771742 -1.1067783 -1.4545621
28.083601 -1.4963752 -1.31151
27.807821 -1.6667008 -1.2991186
27.254137 -1.7194606 -1.2734978
20.614372 -1.3655913 -1.4446566
27.230661 -1.8038849 -1.2726593
20.629883 -1.4317276 -1.4460517
26.919926 -1.8682609 -1.2584049
20.537466 -1.4937627 -1.439913
20.459064 -1.5526893 -1.4347512
26.931204 -2.0438759 -1.2595228
26.725119 -2.1173928 -1.2502061
20.571894 -1.6949322 -1.443401
26.692453 -2.1992092 -1.2489949
26.416685 -2.2600644 -1.2364174
20.39756 -1.8132571 -1.4319609
26.243877 -2.3329699 -1.2286845
20.492756 -1.8902335 -1.4390761
26.174324 -2.4142964 -1.2257963
26.033792 -2.4792566 -1.2195542
20.538055 -2.0246315 -1.443122
25.794802 -2.5428388 -1.2087469
25.9755 -2.6430757 -1.2175977
20.603922 -2.1655593 -1.4487025
25.942753 -2.7266932 -1.2164797
20.442299 -2.2135246 -1.4378204
25.846664 -2.798718 -1.2123804
20.680714 -2.3087499 -1.45512
25.884893 -2.8897331 -1.2146164
20.72093 -2.3791707 -1.4584683
20.822329 -2.4571152 -1.4661416
25.979317 -3.06566 -1.219927
20.39616 -2.4754307 -1.4367043
26.093954 -3.1669576 -1.2257963
20.744654 -2.5838833 -1.4618167
26.10965 -3.2521286 -1.2270076
26.074942 -3.3356516 -1.2258896
20.650385 -2.7076752 -1.4563756
26.173281 -3.4318366 -1.2310138
26.215834 -3.5212262 -1.2335292
20.664093 -2.8453267 -1.4586079
26.085262 -3.5917904 -1.2279392
20.773588 -2.9269323 -1.4669787
26.45566 -3.7275178 -1.2459205
20.695175 -2.9822204 -1.4620957
26.708792 -3.8487957 -1.2584049
20.683197 -3.0505402 -1.4619561
26.498236 -3.9081931 -1.2490882
20.736645 -3.1250172 -1.4664207
26.626089 -4.012558 -1.255703
20.844479 -3.2119963 -1.4747913
26.531679 -4.0883565 -1.2518831
20.893412 -3.2867665 -1.4789768
27.499565 -4.3259883 -1.2981871
20.875103 -3.351124 -1.4784187
20.944599 -3.4335632 -1.4841387
27.447397 -4.4996023 -1.2970691
21.043907 -3.5177665 -1.4919515
27.439037 -4.5867968 -1.2973485
21.012459 -3.5841765 -1.4905564
27.512299 -4.6928792 -1.3015411
21.113138 -3.6696453 -1.4985086
27.389162 -4.7604723 -1.2964169
27.346529 -4.8416185 -1.2951126
20.982975 -3.7867763 -1.4909748
27.0826 -4.8875694 -1.2833735
20.800257 -3.8213141 -1.4788373
27.008163 -4.9617982 -1.2805785
20.986223 -3.9236741 -1.492928
26.870686 -5.0238581 -1.2748022
21.014256 -4.0010815 -1.4958577
27.048174 -5.14993 -1.2840257
26.833761 -5.196516 -1.2746159
21.055258 -4.1461444 -1.5006013
23.524191 -4.6323199 -1.1180955
20.847723 -4.1771393 -1.4867895
26.670357 -5.3437867 -1.2684668
20.710598 -4.2211475 -1.4780002
26.764072 -5.4549413 -1.2737774
20.848421 -4.3137054 -1.4887427
26.896454 -5.5650921 -1.280858
20.658283 -4.3458524 -1.4761865
23.524931 -5.0261316 -1.1218221
21.004929 -4.5567784 -1.502973
23.495356 -5.0970483 -1.12117
23.493029 -5.1824737 -1.1219153
20.948935 -4.69032 -1.5011593
26.728504 -5.9843249 -1.2773178
20.962166 -4.7586398 -1.5031124
23.552502 -5.3466744 -1.1262943
20.981266 -4.8361931 -1.5056238
23.838339 -5.49475 -1.1408283
23.400761 -5.4713659 -1.1207042
21.073835 -5.0010653 -1.5145526
26.045269 -7.1642823 -1.2597091
20.508709 -6.4978671 -1.5043682
25.566313 -8.1002903 -1.250672
20.512892 -6.5701756 -1.5061818
25.616842 -8.2049456 -1.2543986
19.85438 -6.4281006 -1.4593054
25.604244 -8.28969 -1.2550508
19.895523 -6.5143914 -1.4639093
25.576614 -8.3745508 -1.2550508
25.483797 -8.4328938 -1.2517899
20.290102 -6.7889724 -1.4961369
25.457584 -8.5179882 -1.2518831
20.111797 -6.8740439 -1.4862314
25.407719 -8.6841459 -1.2521626
20.291887 -7.0068703 -1.5011593
25.333103 -8.7476215 -1.2498335
20.804644 -7.2571602 -1.0275373
20.261271 -7.1430702 -1.5022755
20.867136 -7.356667 -1.031823
20.255646 -7.2127109 -1.503531
25.174562 -8.9642591 -1.2462
20.242882 -7.2838941 -1.5043682
25.154099 -9.0510721 -1.2466657
20.189892 -7.3365502 -1.5021359
20.769268 -7.5470824 -1.0305187
20.127413 -7.3855095 -1.4992061
20.054171 -7.4341831 -1.4955788
19.987741 -7.4810638 -1.49237
19.912436 -7.5282536 -1.4886031
19.875639 -7.5857935 -1.4876266
19.793997 -7.6259627 -1.4833018
20.357697 -7.8431373 -1.0173821
19.736469 -7.6750927 -1.4807904
20.392538 -7.9302244 -1.0203635
19.681423 -7.8043494 -1.4805114
20.29121 -8.0461502 -1.0179411
19.651253 -7.8639183 -1.4800928
20.093334 -8.0408287 -1.0092766
19.63015 -7.9271097 -1.4803718
20.247665 -8.1764765 -1.0183138
19.577435 -7.977448 -1.4782792
19.986912 -8.1443024 -1.0064816
19.574421 -8.0480175 -1.4799534
19.510771 -8.0975866 -1.4771631
24.665043 -10.236773 -1.2453614
20.936409 -8.770772 -1.0585619
19.445206 -8.2179766 -1.4761865
20.945559 -8.8520584 -1.0604253
19.446821 -8.2907619 -1.4782792
19.466499 -8.3715191 -1.4817669
20.873007 -8.9763832 -1.0595866
19.481083 -8.4584894 -1.4851153
21.515923 -9.3419962 -1.0938721
19.477833 -8.5258532 -1.4867895
21.204433 -9.2816229 -1.0794313
19.443977 -8.5879803 -1.4863709
21.23019 -9.3769112 -1.0823195
19.466108 -8.6709414 -1.4901378
21.284575 -9.4809551 -1.0866051
19.46607 -8.7443151 -1.4922304
21.185434 -9.5166674 -1.0830648
19.473312 -8.8252907 -1.4950207
21.324808 -9.6643877 -1.0918225
19.516516 -8.9230013 -1.5006013
21.216331 -9.700161 -1.0879095
19.359491 -8.9207516 -1.4905564
19.418455 -9.0261087 -1.4973925
21.064383 -9.7911701 -1.0832511
21.109497 -9.8929033 -1.0871642
19.419287 -9.1794548 -1.5019964
24.217562 -11.447589 -1.2491813
24.220558 -11.640953 -1.2531874
24.17308 -11.711759 -1.2526284
19.438801 -9.4935389 -1.5127388
24.06077 -11.750821 -1.2487155
19.435848 -9.572052 -1.514971
19.370064 -9.6955776 -1.5146921
19.214504 -9.7691669 -1.507298
19.215736 -9.8501225 -1.5099487
19.167013 -9.9055462 -1.508693
18.75358 -9.7666569 -1.4785582
18.162729 -9.6044979 -1.4367043
18.248741 -9.7275543 -1.4460517
18.492287 -9.9321051 -1.4678158
18.643473 -10.093107 -1.4824646
19.787848 -10.712643 -1.0493383
17.961857 -9.7971897 -1.4307052
19.776896 -10.787192 -1.0505496
17.923996 -9.8497257 -1.4301472
18.144306 -10.049275 -1.4503766
16.900026 -9.4296274 -1.3532757
16.518997 -9.2851992 -1.325094
16.647823 -9.4303951 -1.3379291
16.569595 -9.4549627 -1.3340228
16.326916 -9.4567699 -1.319374
16.074823 -9.3783188 -1.3013767
15.744394 -9.32234 -1.2794733
15.694547 -9.3632536 -1.2779386
15.543633 -9.3395567 -1.2680333
15.517629 -9.3904076 -1.2683122
15.401164 -9.386158 -1.261197
15.257675 -9.3645735 -1.2518497
15.313124 -9.472352 -1.2591044
15.178296 -9.4550104 -1.2504545
15.216123 -9.5450544 -1.2560351
15.05654 -9.5809927 -1.2479434
14.928746 -9.7022514 -1.2450136
14.954952 -9.7862453 -1.2497569
14.886395 -9.883007 -1.249478
14.842003 -9.9208565 -1.2483618
14.862072 -10.001966 -1.2526867
14.76927 -10.074912 -1.2501755
14.734135 -10.122704 -1.250036
14.741502 -10.199889 -1.2535238
14.751951 -10.275801 -1.2571512
14.784935 -10.367913 -1.2627317
14.773479 -10.429268 -1.2645453
14.746384 -10.553482 -1.2680333
14.709688 -10.601157 -1.2678937
17.458984 -12.582553 -1.0035934
14.71184 -10.673093 -1.270963
14.679847 -10.720434 -1.2711024
17.306978 -12.638982 -0.99940091
14.721085 -10.829543 -1.2779386
17.275627 -12.708789 -1.0001463
14.768763 -10.936291 -1.2850537
17.309473 -12.81769 -1.004432
14.768379 -11.080356 -1.2910528
14.821063 -11.192824 -1.298726
14.764808 -11.227422 -1.2970519
14.803534 -11.33454 -1.3037485
14.775754 -11.38708 -1.3044461
14.793508 -11.47502 -1.3091896
14.765246 -11.527577 -1.3098872
14.678314 -11.538254 -1.3055623
14.797977 -11.711922 -1.319653
14.781398 -11.774513 -1.3214666
14.776998 -11.923532 -1.3277447
14.850419 -12.064304 -1.3379291
19.911613 -16.175959 -1.1963557
14.830736 -12.208136 -1.3432306
14.792311 -12.254668 -1.3432306
14.890119 -12.414787 -1.3556472
20.013508 -16.799278 -1.2185293
14.862983 -12.555748 -1.3605303
19.954529 -16.856915 -1.2181567
19.836121 -16.869925 -1.2143369
14.825547 -12.689088 -1.3645761
19.739008 -16.894487 -1.2116351
14.849103 -12.79029 -1.3704357
19.744871 -17.007265 -1.2152686
19.579689 -16.978413 -1.2085606
14.78048 -12.902924 -1.3719703
19.554884 -17.070837 -1.210517
14.764618 -12.966468 -1.3740631
19.487635 -17.114279 -1.2094922
14.74097 -13.032537 -1.3758767
19.384377 -17.137787 -1.206604
14.704424 -13.082762 -1.3762952
19.357306 -17.222506 -1.208281
14.723378 -13.187358 -1.3821548
19.279253 -17.267941 -1.2069768
14.664749 -13.222751 -1.3807596
19.2204 -17.330441 -1.2068835
14.683718 -13.323724 -1.3864797
19.094845 -17.326296 -1.2024115
14.629999 -13.359023 -1.3853636
18.981304 -17.332312 -1.1986848
14.602651 -13.41842 -1.3867587
19.012083 -17.470261 -1.2040886
14.587363 -13.493866 -1.3895489
18.880714 -17.46538 -1.1994302
14.560964 -13.554582 -1.3910836
18.642965 -17.354456 -1.1877843
14.533404 -13.619164 -1.3927578
18.640709 -17.468092 -1.1913247
14.407811 -13.586733 -1.3848056
18.566845 -17.508749 -1.1901134
14.467808 -13.729436 -1.394711
18.508848 -17.56424 -1.1899271
14.475578 -13.828329 -1.3998729
18.376829 -17.555143 -1.1851757
14.421996 -13.864058 -1.3988963
18.361916 -17.651554 -1.1877843
14.370208 -13.906259 -1.3983383
18.301844 -17.710958 -1.1876911
14.307866 -13.933238 -1.3965245
18.137333 -17.662437 -1.1806105
14.265448 -13.979516 -1.3966641
14.240314 -14.047762 -1.3987567
18.094009 -17.849346 -1.1852689
14.256999 -14.152869 -1.4047558
18.063366 -17.931437 -1.1869458
17.995325 -17.982765 -1.1863868
14.085118 -14.164003 -1.3968036
17.91902 -18.019379 -1.1850824
17.91428 -18.128162 -1.1885297
13.977983 -14.239004 -1.395269
17.880657 -18.214556 -1.1902999
13.939047 -14.293851 -1.3961061
17.79505 -18.248005 -1.1886228
17.770031 -18.330847 -1.1905793
13.832355 -14.363903 -1.3944319
17.692516 -18.372404 -1.1894614
13.816129 -14.437558 -1.3973618
17.572556 -18.362944 -1.1852689
17.521198 -18.431252 -1.1859211
13.722812 -14.531774 -1.3976407
17.531309 -18.564781 -1.1907656
13.701665 -14.601001 -1.400152
17.446926 -18.592089 -1.1889955
13.598578 -14.582689 -1.3942924
17.34483 -18.600052 -1.1860142
13.585245 -14.660461 -1.3976407
17.354206 -18.72772 -1.1906725
13.528446 -14.696622 -1.3968036
17.327187 -18.823383 -1.1930948
13.394681 -14.643361 -1.3877352
17.194523 -18.923054 -1.1923494
13.325242 -14.757689 -1.3903861
17.155071 -18.999222 -1.193747
13.244267 -14.859815 -1.3919207
13.161853 -14.86631 -1.3884329
13.133533 -14.928555 -1.3903861
13.11152 -14.998282 -1.3930368
13.210876 -15.208094 -1.4086622
13.31287 -15.428552 -1.4249853
16.730827 -19.389692 -1.194306
13.237063 -15.438493 -1.4220555
16.698441 -19.475525 -1.1963557
13.269879 -15.581032 -1.4311239
16.600086 -19.491245 -1.1939334
13.256951 -15.665285 -1.4350301
16.487148 -19.482298 -1.1902066
13.266738 -15.777098 -1.4414479
16.509436 -19.633387 -1.1962625
13.288527 -15.909819 -1.4495395
16.485224 -19.737095 -1.1992439
13.216818 -15.925387 -1.4471678
16.418032 -19.782637 -1.1988713
13.214956 -16.025324 -1.4524692
16.34436 -19.820244 -1.1980326
13.183233 -16.095297 -1.454841
16.33931 -19.948524 -1.2025046
13.146456 -16.153656 -1.4563756
16.263947 -19.984261 -1.201573
16.280228 -20.133127 -1.2074425
13.081846 -16.287991 -1.4608401
16.26091 -20.246193 -1.2109828
13.044299 -16.346163 -1.4623747
16.210934 -20.314358 -1.2120078
13.037115 -16.448744 -1.4676762
16.136034 -20.358608 -1.2114487
13.073014 -16.60091 -1.4775816
16.135033 -20.489248 -1.2162002
13.092871 -16.740034 -1.4860919
16.064539 -20.539495 -1.2160139
15.976642 -20.559887 -1.2142438
15.841108 -20.659462 -1.2140574
15.749493 -20.674162 -1.2120078
15.683257 -20.729462 -1.2121941
15.607253 -20.764257 -1.2113556
15.571827 -20.853205 -1.2136847
15.49545 -20.8951 -1.2131257
15.451058 -20.972631 -1.2148027
15.412099 -21.065672 -1.2172251
15.423364 -21.220648 -1.223374
38.209126 8.2680998 -0.90763497
38.565594 8.0919113 -0.9148767
38.488434 7.9425516 -0.9124164
38.083466 7.7274108 -0.90220368
38.111473 7.60852 -0.90229648
37.756527 7.4143815 -0.89333719
37.222088 7.1880493 -0.88015342
37.772182 7.1644602 -0.8925944
37.814163 7.0494142 -0.8930586
37.805862 6.9182096 -0.8923158
37.793957 6.7933989 -0.89152676
37.659557 6.6471829 -0.8878594
37.594707 6.5072484 -0.88581681
25.792152 4.3809438 -1.2200201
37.689869 6.4018393 -0.88758087
26.065914 4.3432426 -1.232318
37.193062 6.1973081 -0.87541842
37.05751 6.0484996 -0.87175113
37.457382 5.9929876 -0.88071042
37.356552 5.8498802 -0.87787879
37.35598 5.7229481 -0.87741452
37.02972 5.5539484 -0.8693372
36.981697 5.4280133 -0.86780524
36.996593 5.3115292 -0.86775887
26.163462 3.6677222 -1.2320386
36.982319 5.1843629 -0.86701608
36.239716 4.964231 -0.84923661
25.871742 3.4566338 -1.2172251
36.598843 4.8898444 -0.85726756
36.401878 4.7471476 -0.85230047
36.307518 4.6188931 -0.84974724
36.144047 4.476357 -0.84556931
28.518114 2.6053905 -1.3354537
28.708824 0.95739168 -1.3395531
28.356146 -0.24251087 -1.3224103
28.276369 -0.78489149 -1.3191496
28.135767 -1.0513611 -1.3130006
27.839128 -1.5759457 -1.3003299
26.973358 -1.9618678 -1.2611998
20.585072 -1.6309257 -1.443959
20.636017 -1.9652144 -1.4495395
20.626865 -2.0988379 -1.4498185
25.976912 -2.9826608 -1.2193679
20.639 -2.6402559 -1.4549806
20.701099 -2.7805049 -1.460561
27.50951 -4.4161592 -1.2993051
20.981665 -3.7147391 -1.4899982
21.077974 -4.0818739 -1.5012989
20.967463 -4.6253433 -1.5014383
20.10235 -6.7964501 -1.4838598
25.406096 -8.5896053 -1.250672
20.282961 -7.0751848 -1.5021359
20.378502 -7.7777176 -1.0171958
19.710909 -7.740499 -1.4807904
19.48197 -8.1614723 -1.4770236
19.465879 -9.1226273 -1.503252
24.220943 -11.547608 -1.2513242
19.446985 -9.4219847 -1.5110648
19.232632 -9.7024641 -1.5063213
15.089914 -9.5320768 -1.2480828
14.985972 -9.6726141 -1.2472458
14.890767 -9.8149223 -1.2471062
14.812409 -10.036297 -1.2511522
14.756496 -10.49465 -1.2662195
14.768248 -11.003902 -1.2878441
14.817496 -11.879546 -1.3280237
20.08445 -16.745613 -1.2194611
14.914579 -12.519254 -1.3616463
14.821265 -12.604965 -1.3605303
14.824692 -12.855145 -1.3721098
18.148821 -17.785051 -1.1849893
14.139424 -14.129556 -1.3977802
14.02232 -14.189735 -1.39499
13.891019 -14.329414 -1.395548
13.776422 -14.491971 -1.3981987
17.246393 -18.854139 -1.1916043
13.384957 -14.730521 -1.3917812
13.280146 -14.800964 -1.3905255
13.130772 -16.238316 -1.4602821
15.899831 -20.601685 -1.2135916
13.85649 -22.209503 -1.2207654
34.909622 49.268147 -2.8158753
33.245792 42.999523 -2.5346978
31.714294 39.416431 -2.3592646
31.861269 39.359436 -2.3615005
34.547291 41.040783 -2.5017166
31.541094 34.204708 -2.1697631
31.22032 33.644157 -2.1404154
30.877249 33.065517 -2.1097636
4.8534751 22.562616 -2.6988778
4.9323931 22.584126 -2.7032914
5.0154281 22.604494 -2.707705
5.0990791 22.644825 -2.714442
5.1626682 22.595774 -2.7104928
5.241168 22.594009 -2.7123513
5.3284974 22.647045 -2.7207141
5.4243255 22.716198 -2.7311678
5.4979963 22.708698 -2.7323291
5.5783243 22.727964 -2.7367427
5.1875014 20.836948 -3.0178299
5.6637254 22.749826 -2.7416213
5.2657876 20.856115 -3.0231183
5.737196 22.723213 -2.7406919
5.3369622 20.876858 -3.0284069
5.8016362 22.694544 -2.7392983
5.4111376 20.878216 -3.0311904
5.9057736 22.786707 -2.7527716
5.4847441 20.891766 -3.0356438
5.5652032 20.915565 -3.0417676
6.0916219 22.893991 -2.7704265
5.6572132 20.981136 -3.0540147
6.1778455 22.912024 -2.7750726
5.7377009 21.016758 -3.0618086
6.2607775 22.932749 -2.7799511
5.8015838 20.990993 -3.0606949
6.3439007 22.953176 -2.7848294
5.8883276 21.047045 -3.0715506
6.4459677 23.040257 -2.7978382
5.974823 21.086475 -3.0801795
6.5244975 23.0264 -2.7987673
6.0496273 21.083681 -3.0826845
6.6101289 23.037098 -2.8027165
6.1340632 21.127337 -3.0918698
6.7068472 23.100155 -2.8129377
6.7894583 23.113279 -2.8171194
6.2762709 21.120655 -3.096602
6.8801394 23.152769 -2.8245528
6.3633943 21.156622 -3.1049521
6.967185 23.164068 -2.8287344
6.4513922 21.194139 -3.1135809
7.060154 23.194048 -2.8352387
6.5191045 21.177555 -3.1141376
7.1166167 23.118595 -2.8287344
6.591496 21.175879 -3.1169212
7.2441235 23.272514 -2.8503382
6.6746435 21.207962 -3.1247149
7.3416576 23.32733 -2.8598628
6.7611527 21.236666 -3.13223
7.3978767 23.236605 -2.8517323
6.8314724 21.226635 -3.1339002
7.4714437 23.215141 -2.8519645
6.9183826 21.254709 -3.1414154
7.5557718 23.212902 -2.8547521
6.9913068 21.251686 -3.1441989
7.6100321 23.132444 -2.8477831
7.0842748 21.308552 -3.1558895
7.7873206 23.42322 -2.8865774
7.1706705 21.331879 -3.1628482
7.8750749 23.427397 -2.8902941
7.9601412 23.436396 -2.8944757
8.0582371 23.482666 -2.9033029
8.1725149 23.560919 -2.916312
8.2708044 23.604488 -2.924907
8.3364305 23.541355 -2.9204934
8.4593019 23.638891 -2.9360576
8.8325415 23.724672 -2.9604492
8.8944683 23.66333 -2.9562678
9.0321131 23.789705 -2.975781
10.109623 26.627764 -2.6572669
10.222441 26.672112 -2.6648841
9.4004316 23.610243 -2.9718318
10.693501 26.857931 -2.6970248
9.5486145 23.764919 -2.9950621
10.906259 27.143869 -2.7291653
9.6404009 23.777143 -3.0004051
10.998221 27.126078 -2.7308373
9.8117361 23.971176 -3.0289781
11.143164 27.224001 -2.7443995
9.8574419 23.868622 -3.0199184
11.265902 27.279039 -2.7535031
10.016026 24.026487 -3.0440779
11.395373 27.335272 -2.7629781
10.151521 24.137732 -3.062197
11.5167 27.38378 -2.7715242
10.242038 24.140467 -3.0666108
11.617443 27.382294 -2.7750537
10.34941 24.170284 -3.0747416
11.745031 27.429655 -2.7837858
10.458368 24.214245 -3.0844982
11.876936 27.498653 -2.7945611
10.574857 24.274145 -3.0963454
11.976795 27.492239 -2.7977197
10.691262 24.320778 -3.1067991
12.023817 27.35211 -2.7875013
10.786139 24.328836 -3.1121418
12.167805 27.445271 -2.800878
10.836741 24.225845 -3.1035469
12.37746 27.670168 -2.8280025
10.846639 24.045004 -3.0847304
12.452873 27.60573 -2.8254015
10.895042 23.940201 -3.0759029
12.602906 27.69297 -2.8385918
10.900601 23.754198 -3.0563896
12.728045 27.736498 -2.8471382
10.966826 23.701811 -3.0540667
12.81344 27.692762 -2.8467665
11.007565 23.584309 -3.043613
12.910263 27.660942 -2.8478811
11.030005 23.439972 -3.0294425
13.053054 27.73917 -2.8601429
13.14667 27.699333 -2.8605144
13.285216 27.765665 -2.8716614
13.727427 27.76314 -2.8894968
13.884745 27.86068 -2.9041739
14.009738 27.891665 -2.9119766
14.132751 27.905449 -2.9182935
14.237558 27.894609 -2.9218233
14.400123 27.983593 -2.9361286
14.526487 28.012451 -2.9439313
14.680819 28.093754 -2.9573081
14.759973 28.018492 -2.9545212
14.878728 28.030029 -2.9606521
15.029645 28.100792 -2.9730995
15.213462 28.219076 -2.9909348
15.370471 28.297138 -3.0043113
15.487182 28.287926 -3.0087702
13.319045 24.137384 -2.5719922
13.36579 24.043205 -2.5664186
17.874554 32.153847 -2.5724792
13.472402 24.05669 -2.5723636
17.911148 31.982637 -2.5632715
18.263474 32.372795 -2.5991263
18.492994 32.527126 -2.616426
18.486013 32.278423 -2.6010795
18.861223 32.681774 -2.6386082
19.103168 32.862118 -2.6580005
19.250681 32.877693 -2.6641393
19.426506 32.92709 -2.673347
19.532921 32.87104 -2.6737657
19.759037 33.01495 -2.6905074
15.793689 26.191849 -2.8534548
20.041485 33.236282 -2.7139454
15.716188 25.686733 -2.8094239
15.767552 25.589766 -2.8042221
20.594036 33.422852 -2.7451961
15.849974 25.543484 -2.8045936
20.78941 33.503777 -2.7571943
16.037786 25.665812 -2.8235435
20.999245 33.605801 -2.7710063
16.273445 25.851799 -2.8499248
21.164766 33.622093 -2.7781212
16.491327 26.006222 -2.872962
21.392616 33.735374 -2.7933283
16.681185 26.1238 -2.8917263
21.57687 33.790756 -2.8035128
16.786861 26.10812 -2.8958135
21.753052 33.83189 -2.8125811
16.70122 25.786556 -2.8662736
22.024548 34.005733 -2.8330894
22.228277 34.085106 -2.8455062
22.471031 34.221905 -2.8628056
22.717558 34.348564 -2.8796868
19.473604 29.243656 -2.4568229
19.584276 29.210497 -2.4591947
22.347731 31.975254 -2.7278967
22.320442 31.711712 -2.7117131
22.357679 31.553518 -2.7041795
22.497038 31.112724 -2.6847873
22.796206 31.307304 -2.7080858
23.126808 31.552532 -2.73557
23.421257 31.744625 -2.7585895
-11.140658 23.055826 -3.5987384
-11.045319 23.053343 -3.5926147
-10.94988 23.039639 -3.5850995
-10.902124 23.136734 -3.594563
-10.833571 23.179844 -3.5959549
-10.74071 23.170637 -3.5892744
-10.618336 23.107145 -3.5739653
-10.519401 23.082722 -3.5650585
-10.436279 23.103035 -3.5628316
-10.328016 23.056183 -3.5505843
-10.231418 23.034214 -3.5422342
-10.127052 23.00457 -3.5324919
-10.029323 22.989016 -3.5249765
-9.9303226 22.958605 -3.5155129
-9.8495655 22.969664 -3.5124509
-9.7502308 22.936703 -3.5027089
-9.6525965 22.917801 -3.4949152
-9.5538368 22.884047 -3.4851732
-9.4688196 22.893639 -3.481833
-9.3765717 22.873791 -3.4743176
-9.2785683 22.838917 -3.4645755
-9.1869698 22.841766 -3.4601219
-9.0887613 22.804285 -3.4501014
-9.0043249 22.788784 -3.4436996
-8.8991194 22.742895 -3.4322872
-8.8104391 22.726425 -3.425607
-8.715147 22.703749 -3.4178133
-8.6067457 22.645508 -3.404731
-8.5146294 22.616827 -3.3963807
-8.4380035 22.628618 -3.3941538
-8.3497124 22.60857 -3.3871951
-8.234725 22.538982 -3.3724427
-8.1274843 22.464174 -3.3574121
-8.060215 22.498919 -3.3588037
-7.9702854 22.470001 -3.3507316
-7.8760357 22.427656 -3.3407114
-7.7769122 22.382561 -3.3301342
-7.702651 22.408226 -3.3301342
-7.6028748 22.346064 -3.3173301
-7.5174594 22.324793 -3.3106501
-7.4416556 22.331387 -3.3081448
-7.3415194 22.276941 -3.2964542
-7.250627 22.235874 -3.2869906
-7.1726007 22.246599 -3.2850423
-7.064754 22.15015 -3.2675064
-6.9683213 22.087238 -3.2549806
-6.8882384 22.101973 -3.2535889
-6.7960129 22.04969 -3.2427335
-6.7117 22.021677 -3.2354965
-6.6310487 22.004728 -3.2299294
-6.5371356 21.95636 -3.2196307
-6.460372 21.964621 -3.2176824
-6.3653545 21.895422 -3.2046001
-6.2866864 21.88105 -3.19959
-6.206018 21.858776 -3.1934662
-6.1484709 21.932631 -3.2012599
-6.0741148 21.947174 -3.2004247
-5.9983501 21.941311 -3.1968064
-5.9092488 21.885479 -3.1859508
-5.838686 21.912607 -3.1870644
-5.742106 21.825499 -3.1717553
-5.6755061 21.851095 -3.1728685
-5.5872788 21.808403 -3.1639616
-5.4949422 21.731766 -3.1503227
-5.4214144 21.744101 -3.1494875
-5.3298988 21.666788 -3.1358485
-5.2160091 21.511116 -3.1107974
-5.1751275 21.639116 -3.1269414
-5.0656409 21.496157 -3.1038389
-4.9927087 21.488813 -3.1004987
-4.8959765 21.37698 -3.0821278
-4.8154788 21.350594 -3.076004
-4.753541 21.388817 -3.0793443
-4.6593008 21.29805 -3.0640352
-4.623661 21.457787 -3.0849111
-4.5512977 21.448957 -3.0815709
-4.4562635 21.349546 -3.0651486
-4.393559 21.384783 -3.0682104
-4.3128204 21.350698 -3.0612516
-4.2399378 21.335005 -3.0570767
-4.1462784 21.212158 -3.0375922
-4.0699425 21.194672 -3.0331388
-4.0047688 21.2353 -3.0370355
-3.9345336 21.208141 -3.0314689
-3.8489206 21.137287 -3.0194998
-3.7915664 21.199963 -3.0267367
-3.7308199 21.26704 -3.0345304
-3.6344278 21.129002 -3.013098
-3.5848453 21.239914 -3.0272934
-3.5077434 21.188545 -3.0183866
-3.4506741 21.25811 -3.0267367
-3.3761239 21.244007 -3.0231183
-3.284651 21.120054 -3.0039124
-3.2215686 21.151806 -3.0069742
-3.1294053 20.989439 -2.9824796
-3.0726025 21.06188 -2.9913869
-3.0044224 21.083717 -2.9930568
-2.9418526 21.146528 -3.0005724
-2.869807 21.114456 -2.9947271
-2.7852139 20.985933 -2.9752426
-2.7146859 20.959227 -2.9702325
-2.6311154 20.886044 -2.9585421
-2.5836403 21.011702 -2.9752426
-2.4948928 20.860868 -2.9526968
-2.4412568 20.9709 -2.9671707
-2.3457203 20.716726 -2.9301507
-2.2854893 20.835037 -2.9457381
-2.221705 20.857868 -2.9479649
-2.1626575 20.891949 -2.9518616
-2.0848818 20.814266 -2.9398928
-2.0269425 20.897594 -2.9507484
-1.9595078 20.963699 -2.9590988
-1.8884772 20.91255 -2.9510267
-1.821216 20.900623 -2.9485216
-1.7586987 20.943739 -2.9538102
-1.6892413 20.949455 -2.9538102
-1.6122763 20.858185 -2.9401712
-1.5419122 20.797968 -2.9309857
-1.4775414 20.816538 -2.9329343
-1.4184401 20.91395 -2.9460166
-1.3524784 20.914349 -2.9454598
-1.283717 20.928604 -2.9468515
-1.2101831 20.861565 -2.936831
-1.1422461 20.821758 -2.9307072
-1.079787 20.882605 -2.9387794
-1.0083447 20.84057 -2.9323776
-0.93975824 20.855669 -2.9340475
-0.87678546 20.832644 -2.9304292
-0.80823833 20.849291 -2.9323776
-0.74266785 20.849747 -2.9320991
-0.6763311 20.826242 -2.9284806
-0.60316533 20.812639 -2.9262538
-0.53624696 20.755035 -2.9179034
-0.46965152 20.695238 -2.9092748
-0.40550786 20.742153 -2.9156766
-0.33727279 20.777048 -2.9204085
-0.26817128 20.762209 -2.9181817
-0.2031119 20.780773 -2.9206867
-0.13806668 20.816959 -2.9256971
-0.072381258 20.734108 -2.9140067
-0.0036249077 20.771864 -2.9192953
0.065352485 20.80345 -2.9237487
0.1307663 20.813046 -2.9251406
0.19516835 20.707567 -2.910388
0.2606262 20.738537 -2.9148417
0.32879442 20.699932 -2.9095531
0.39419624 20.718599 -2.9123366
0.4613125 20.645899 -2.9023159
0.52884167 20.749281 -2.9170685
0.59385073 20.741577 -2.9162333
0.66124344 20.695946 -2.9101098
0.7300055 20.697598 -2.9106665
0.79646581 20.732805 -2.9159551
0.85609126 20.597618 -2.8973057
0.92195225 20.62055 -2.9009244
0.99697477 20.755856 -2.9204085
1.0659055 20.754412 -2.9206867
1.1312059 20.752939 -2.9209652
1.1993579 20.800692 -2.9282022
1.2694097 20.814392 -2.9307072
1.3347896 20.810303 -2.9307072
1.3932648 20.649654 -2.9087181
1.469997 20.813103 -2.9323776
1.5339146 20.788631 -2.929594
1.612596 20.909807 -2.9474082
1.6823947 20.955967 -2.9546452
1.7500583 20.92856 -2.9515831
1.8125511 20.885469 -2.9462945
1.8820555 20.923071 -2.9524183
1.9558398 20.964043 -2.9590988
2.0175025 20.914423 -2.952975
2.0832131 20.90798 -2.952975
2.1588209 20.962032 -2.9616039
2.2246602 20.955147 -2.9616039
2.2960749 20.999245 -2.9688408
2.3668129 21.001356 -2.9702325
2.4355257 20.985523 -2.9691193
2.4969919 20.940401 -2.9638307
2.564687 20.948179 -2.9660573
2.6437762 21.016197 -2.976913
2.7092867 21.003859 -2.9763563
2.786725 21.053659 -2.9847066
2.8328958 20.89761 -2.9638307
2.9222121 21.059278 -2.9880466
2.9847903 20.998489 -2.9808097
3.0527344 21.002729 -2.982758
3.1191561 20.970943 -2.9796965
3.1790681 20.921879 -2.9741294
3.2672849 21.032558 -2.9913869
3.3389232 21.057402 -2.996397
3.3952608 20.986198 -2.9877682
3.4690371 21.000225 -2.9913869
3.5211751 20.907198 -2.9796965
3.5999029 20.97216 -2.9905517
3.6646535 20.932793 -2.986655
3.7213547 20.870483 -2.979418
3.8121407 20.976896 -2.996397
3.8740559 20.943394 -2.9933352
3.9082878 20.743587 -2.9666142
3.9812715 20.772053 -2.9724593
4.0518103 20.786657 -2.9763563
4.1272755 20.806131 -2.9810879
4.1706934 20.684341 -2.9655006
4.273478 20.837254 -2.9894385
4.336905 20.81403 -2.9880466
4.3846345 20.716984 -2.9760778
4.432065 20.603584 -2.9618824
4.5250902 20.719194 -2.9805312
4.5907655 20.690542 -2.9785829
4.6748934 20.761032 -2.9908302
4.7542052 20.808029 -2.9997373
4.7994676 20.689896 -2.9849851
4.8798609 20.740263 -2.9944487
4.9495277 20.727821 -2.9950054
5.0220742 20.74297 -2.999459
5.0943122 20.755938 -3.003634
6.2104497 21.142166 -3.09688
-1.5955639 -7.9995499 -2.135416
-1.6199189 -7.9907055 -2.1344032
-1.6460178 -7.9833946 -2.1338968
-1.672482 -7.9778924 -2.1338968
-1.6967304 -7.9688134 -2.1328835
-1.7217572 -7.9634442 -2.1328835
-1.7463523 -7.9561062 -2.1323771
-1.7727263 -7.9502716 -2.1323771
-1.7964127 -7.9390025 -2.1308577
-1.8222954 -7.9311161 -2.1303513
-1.8476424 -7.9272361 -2.1308577
-1.8698661 -7.9100952 -2.1278186
-2.0186946 -8.5396843 -2.0791836
-1.8965384 -7.9057322 -2.1283252
-2.0456405 -8.5272646 -2.0778003
-1.9213719 -7.8937602 -2.1268058
-2.0752878 -8.5261078 -2.0791836
-1.9456983 -7.8858066 -2.1262991
-2.1011312 -8.5157681 -2.0782616
-1.9690547 -7.874023 -2.1247797
-2.1283462 -8.5110121 -2.0787225
-1.993306 -7.8659229 -2.1242731
-2.1550732 -8.5042839 -2.0787225
-2.0193789 -7.8592696 -2.1242731
-2.1827779 -8.4952068 -2.0782616
-2.0421102 -7.845397 -2.122247
-2.209456 -8.488307 -2.0782616
-2.0695965 -7.8441949 -2.1237667
-2.2380886 -8.4828148 -2.0787225
-2.092232 -7.8301768 -2.1217406
-2.2642252 -8.4738617 -2.0782616
-1.9823763 -7.3266735 -2.1764326
-2.1158097 -7.8198304 -2.1207275
-2.2918513 -8.4704638 -2.0791836
-2.0074308 -7.3178554 -2.1758814
-2.1415577 -7.8067994 -2.1192081
-2.3208902 -8.460535 -2.0787225
-2.0309246 -7.3133655 -2.1764326
-2.1671078 -7.803762 -2.1202211
-2.3479786 -8.4550781 -2.0791836
-2.0510545 -7.301754 -2.1747789
-2.1881592 -7.7898469 -2.1181951
-2.3735805 -8.4499464 -2.0796447
-2.0742049 -7.291214 -2.1736763
-2.21345 -7.7806869 -2.1176887
-2.097101 -7.2846618 -2.1736763
-2.2362771 -7.768116 -2.116169
-2.4280987 -8.4344425 -2.0796447
-2.1185567 -7.2684393 -2.1709199
-2.2620251 -7.7606573 -2.116169
-2.1421034 -7.2595296 -2.1703687
-2.2850099 -7.7438359 -2.1136367
-2.1621501 -7.2435536 -2.1676123
-2.3087733 -7.7347651 -2.1131301
-2.182117 -7.2275233 -2.164856
-2.3308241 -7.7200651 -2.111104
-2.2036896 -7.2169542 -2.1637533
-2.3528059 -7.7053018 -2.1090779
-2.5586653 -8.3794785 -2.0759559
-2.2260287 -7.2000337 -2.1609969
-2.379117 -7.6951938 -2.1085715
-2.2469168 -7.187501 -2.1593432
-2.4038577 -7.689528 -2.1090779
-2.6130223 -8.3586092 -2.0750334
-2.2677481 -7.1749067 -2.1576893
-2.4274209 -7.6800938 -2.1085715
-2.2873511 -7.1585908 -2.154933
-2.4485915 -7.6632147 -2.1060388
-2.3092377 -7.1495399 -2.1543818
-2.4720588 -7.6536431 -2.1055324
-2.6940751 -8.3410196 -2.0768781
-2.3317401 -7.1381874 -2.1532791
-2.4962244 -7.6417255 -2.1045196
-2.3547957 -7.1285906 -2.1527278
-2.5197313 -7.6278944 -2.1030002
-2.3759613 -7.1175108 -2.1516254
-2.5430691 -7.6181049 -2.1024935
-2.394623 -7.0990806 -2.1483176
-2.5645165 -7.602746 -2.1004674
-2.7990878 -8.2981529 -2.0750334
-2.4187746 -7.096982 -2.1499715
-2.5902615 -7.6001453 -2.1019869
-2.4403996 -7.0794082 -2.1472151
-2.6142521 -7.5837407 -2.099961
-2.4613936 -7.0721364 -2.1472151
-2.6354697 -7.5722961 -2.098948
-2.4816425 -7.0548673 -2.1444588
-2.659924 -7.5616894 -2.0984414
-2.5050814 -7.0506592 -2.1455612
-2.6836669 -7.5532956 -2.0984414
-2.5259211 -7.039135 -2.1444588
-2.7073834 -7.544827 -2.0984414
-2.5478537 -7.0230465 -2.1422536
-2.7330427 -7.5335121 -2.097935
-2.5672596 -7.0077868 -2.1400485
-2.7573621 -7.5267057 -2.0984414
-2.5893748 -7.0037451 -2.1411512
-2.7803538 -7.5203061 -2.098948
-3.036864 -8.2141151 -2.0750334
-2.6119123 -6.9933186 -2.1405997
-2.8032453 -7.5056076 -2.0974286
-3.063405 -8.202177 -2.0745723
-2.6325126 -6.9814816 -2.1394973
-2.8268106 -7.4967642 -2.0974286
-2.6548138 -6.9668598 -2.1378436
-2.8550298 -7.4922743 -2.098948
-2.6746173 -6.9531016 -2.1361897
-2.8771644 -7.4796557 -2.097935
-2.5043237 -6.4498534 -2.1589961
-2.6978388 -6.9482489 -2.1372921
-2.8999474 -7.4687772 -2.0974286
-2.5259669 -6.4455094 -2.1601877
-2.7203553 -6.9415302 -2.1378436
-2.9241021 -7.461431 -2.097935
-2.5462031 -6.4375424 -2.1601877
-2.7386131 -6.9240108 -2.135087
-2.9482396 -7.4540076 -2.0984414
-2.5665345 -6.423296 -2.1584005
-2.7620535 -6.9126229 -2.1345358
-2.9735241 -7.4418731 -2.097935
-2.5859869 -6.4134307 -2.1578047
-2.783756 -6.9039116 -2.1345358
-2.996165 -7.4307013 -2.0974286
-2.6061227 -6.4052749 -2.1578047
-2.8047073 -6.893352 -2.1339846
-3.0194948 -7.4212523 -2.0974286
-2.6255081 -6.3952899 -2.1572092
-2.8234293 -6.8773923 -2.1317794
-3.0449991 -7.4170985 -2.098948
-2.645586 -6.3870106 -2.1572092
-2.8450208 -6.8684883 -2.1317794
-2.6689603 -6.3834863 -2.1589961
-2.8670397 -6.8572426 -2.1312282
-2.687145 -6.3675642 -2.1566133
-2.8890162 -6.8459263 -2.130677
-3.1158404 -7.3834181 -2.097935
-2.7033973 -6.3503079 -2.1536345
-2.9112623 -6.8385849 -2.1312282
-2.7225809 -6.3400292 -2.1530387
-2.9319739 -6.8276391 -2.130677
-2.7435906 -6.3309655 -2.1530387
-2.9523058 -6.8125863 -2.1290231
-3.1873419 -7.3549433 -2.0984414
-2.7592134 -6.3095884 -2.1488686
-2.9741094 -6.8009982 -2.1284719
-3.2101626 -7.3407893 -2.0974286
-2.7774816 -6.2973957 -2.1476772
-2.9970124 -6.7951388 -2.1295743
-3.2324278 -7.3288975 -2.0969222
-2.7972519 -6.2886386 -2.1476772
-3.0175643 -6.7839332 -2.1290231
-3.2562232 -7.3204741 -2.0974286
-2.8154311 -6.2763357 -2.1464856
-3.0372875 -6.7709117 -2.1279204
-2.8354418 -6.2652254 -2.1458898
-3.0621023 -6.7660565 -2.1295743
-2.8554099 -6.2540512 -2.145294
-3.0837243 -6.7541161 -2.1290231
-3.3276157 -7.2882991 -2.0974286
-2.8726494 -6.2398472 -2.1435068
-3.1049287 -6.7443948 -2.1290231
-3.3472607 -7.2707777 -2.0954025
-2.8938446 -6.2342553 -2.1446984
-3.1252911 -6.7328644 -2.1284719
-2.9145024 -6.2246242 -2.1446984
-3.1467857 -6.7207212 -2.1279204
-2.9315982 -6.210258 -2.142911
-3.1678841 -6.7108021 -2.1279204
-3.4185514 -7.2418127 -2.0964155
-2.9562802 -6.2091212 -2.1458898
-3.1892943 -6.698525 -2.1273692
-2.9741185 -6.1963611 -2.1446984
-3.2086575 -6.6850061 -2.1262667
-3.4627323 -7.2143526 -2.0948958
-2.989413 -6.1783943 -2.1417196
-3.0098851 -6.168447 -2.1417196
-3.2534471 -6.6676016 -2.1273692
-3.5143392 -7.2022734 -2.097935
-3.030092 -6.1606736 -2.1423154
-3.2743783 -6.6573477 -2.1273692
-3.051353 -6.1523013 -2.142911
-3.29302 -6.6395636 -2.1251643
-3.0723724 -6.146102 -2.1441026
-3.3172998 -6.636065 -2.1273692
-3.0890889 -6.1313038 -2.1423154
-3.3372664 -6.6238933 -2.1268179
-3.1076751 -6.1176219 -2.1411238
-3.3592141 -6.6127901 -2.1268179
-3.126879 -6.1078281 -2.1411238
-3.3790965 -6.600492 -2.1262667
-3.1443014 -6.0945816 -2.1399324
-3.399816 -6.5898442 -2.1262667
-3.1671364 -6.0892034 -2.1417196
-3.4198747 -6.5751233 -2.1251643
-3.181819 -6.0707679 -2.1387408
-3.4396217 -6.5626435 -2.1246128
-3.2019331 -6.060183 -2.1387408
-3.4613655 -6.5512013 -2.1246128
-2.9953392 -5.6263046 -2.1537471
-3.2236481 -6.0551496 -2.140528
-3.48193 -6.5402942 -2.1246128
-3.0103953 -5.6096635 -2.151186
-3.242806 -6.0427446 -2.1399324
-3.5008707 -6.5236306 -2.1229589
-3.7949493 -7.0716257 -2.1009741
-3.0271027 -5.5985117 -2.1505458
-3.2581415 -6.0258088 -2.1375492
-3.5204339 -6.5109086 -2.1224077
-3.0492785 -5.5950975 -2.1531069
-3.2753656 -6.009943 -2.1357622
-3.5401659 -6.4958229 -2.1213052
-3.8405371 -7.0469713 -2.1009741
-3.0659294 -5.5838294 -2.1524665
-3.2923927 -5.9962759 -2.1345706
-3.5605559 -6.4846687 -2.1213052
-3.0788705 -5.5658793 -2.1492653
-3.3112144 -5.9859023 -2.1345706
-3.5809109 -6.4734507 -2.1213052
-3.1010015 -5.5622582 -2.1518264
-3.3329058 -5.9782243 -2.1357622
-3.6014216 -6.4598603 -2.120754
-3.117533 -5.550837 -2.151186
-3.3507359 -5.9660597 -2.1351662
-3.6226401 -6.450191 -2.1213052
-3.1359222 -5.5404692 -2.151186
-3.3686197 -5.9515929 -2.1339748
-3.6440086 -6.4381437 -2.1213052
-3.9541435 -6.9860821 -2.1014805
-3.1514359 -5.527298 -2.1499057
-3.3882463 -5.9426394 -2.1345706
-3.6632643 -6.424993 -2.120754
-3.1706724 -5.5206556 -2.151186
-3.4040465 -5.9269981 -2.1327834
-3.6815164 -6.4101181 -2.1196513
-3.1889625 -5.5101109 -2.151186
-3.4284647 -5.9239397 -2.1357622
-3.2072115 -5.5017018 -2.1518264
-3.4422507 -5.904892 -2.1327834
-3.723803 -6.3878713 -2.1202028
-3.2225597 -5.486135 -2.1499057
-3.4589124 -5.8885059 -2.130996
-3.7449658 -6.3754873 -2.1202028
-3.2397778 -5.4759846 -2.1499057
-3.4773936 -5.8776112 -2.130996
-3.2559953 -5.4641514 -2.1492653
-3.7849491 -6.3518319 -2.1202028
-3.2760479 -5.456573 -2.1505458
-3.5142944 -5.8533955 -2.1304004
-3.8010435 -6.3310037 -2.1174462
-4.1330566 -6.8840032 -2.1019869
-3.2941248 -5.4456792 -2.1505458
-3.5356622 -5.8449764 -2.1315918
-3.308296 -5.4326453 -2.1492653
-3.5529878 -5.8344607 -2.1315918
-3.3253024 -5.4200296 -2.1486251
-3.5703197 -5.8193922 -2.1304004
-3.8606348 -6.2925873 -2.116895
-3.340322 -5.4063325 -2.1473446
-3.5885847 -5.808147 -2.1304004
-3.8803852 -6.2804279 -2.116895
-4.220427 -6.8307877 -2.1019869
-3.3622372 -5.40166 -2.1499057
-3.6078258 -5.7962146 -2.1304004
-3.3771117 -5.3856649 -2.147985
-3.6280408 -5.7858357 -2.130996
-3.9199107 -6.2512965 -2.1157925
-3.3930027 -5.373426 -2.1473446
-3.6472194 -5.7760234 -2.1315918
-3.6612484 -5.7580934 -2.1292088
-3.4277191 -5.3535981 -2.147985
-3.6834381 -5.7529941 -2.1315918
-3.9776154 -6.2124562 -2.1152411
-4.3264303 -6.7572546 -2.1004674
-3.4474132 -5.3431921 -2.1486251
-3.7014277 -5.7368927 -2.1304004
-3.4621177 -5.3291574 -2.1473446
-3.7194326 -5.7252359 -2.1304004
-3.4840279 -5.3261838 -2.1505458
-3.7353091 -5.7103281 -2.1292088
-4.0423527 -6.1797194 -2.1174462
-3.5059545 -5.3231235 -2.1537471
-3.7563808 -5.7033482 -2.130996
-4.0628052 -6.1685948 -2.1179976
-3.5195189 -5.3073454 -2.1518264
-3.7732253 -5.6899276 -2.1304004
-4.0811019 -6.1541977 -2.1174462
-3.5370996 -5.2956448 -2.1518264
-3.7931333 -5.6789713 -2.130996
-4.104691 -6.1454268 -2.1191001
-3.5525265 -5.2807422 -2.1505458
-3.8076823 -5.6600251 -2.128613
-3.5680363 -5.2679868 -2.1499057
-3.8318691 -5.6575198 -2.1321876
-4.1442909 -6.1187916 -2.1191001
-3.5899062 -5.2645783 -2.1531069
-3.8453217 -5.6391439 -2.1298046
-3.6041253 -5.2479601 -2.151186
-3.8629186 -5.6247883 -2.1292088
-4.1848054 -6.0934873 -2.1196513
-3.6225865 -5.2375374 -2.1518264
-3.8869805 -5.6197987 -2.1321876
-4.2060833 -6.0811572 -2.1202028
-3.9025469 -5.6066732 -2.1315918
-3.6608617 -5.2224302 -2.1550276
-3.9265976 -5.6015177 -2.1345706
-3.4437017 -4.8799496 -2.1738801
-3.6805282 -5.215548 -2.1569483
-3.9419746 -5.5860343 -2.133379
-4.2643185 -6.0428166 -2.120754
-3.6936035 -5.1993251 -2.1550276
-3.9606102 -5.5751791 -2.1339748
-4.2832818 -6.0293894 -2.120754
-3.474896 -4.8554745 -2.1731958
-3.7150369 -5.1910233 -2.1569483
-3.9822681 -5.5644259 -2.1351662
-3.4890344 -4.843009 -2.1725118
-3.7335415 -5.1824012 -2.1582286
-4.0008459 -5.5534368 -2.1357622
-4.3265457 -6.0055299 -2.1224077
-3.5053358 -4.8335452 -2.1731958
-3.7520297 -5.1737142 -2.1595092
-4.0182734 -5.5408401 -2.1357622
-3.523828 -4.8270626 -2.1752481
-3.768265 -5.161901 -2.1595092
-4.0356607 -5.5281892 -2.1357622
-3.5364764 -4.8108077 -2.1731958
-3.7876062 -5.1524296 -2.1607897
-4.057363 -5.5193901 -2.1375492
-3.5546455 -4.8020759 -2.1745641
-3.8046703 -5.139842 -2.1607897
-4.0745063 -5.5043712 -2.1369536
-4.4014587 -5.9460611 -2.1213052
-3.5730829 -4.7954059 -2.1766162
-3.8196669 -5.1263442 -2.1601493
-3.5903862 -4.7871642 -2.1779842
-3.8414376 -5.1218982 -2.1633506
-4.1135936 -5.4847713 -2.1393366
-3.6107719 -4.7812304 -2.1807206
-3.8584018 -5.1091313 -2.1633506
-4.1329103 -5.4726238 -2.1399324
-4.456017 -5.9004683 -2.1202028
-3.8755803 -5.0984926 -2.1639907
-4.1500826 -5.4596124 -2.1399324
-4.4756956 -5.88797 -2.120754
-3.6392879 -4.754828 -2.1793523
-3.8947694 -5.0886216 -2.1652713
-4.175127 -5.4549165 -2.1435068
-3.6576476 -4.747839 -2.1814044
-3.9095793 -5.0748606 -2.1646309
-4.1899123 -5.4387493 -2.1423154
-3.6702423 -4.7333536 -2.1800363
-3.9255035 -5.0625529 -2.1646309
-4.2046385 -5.4225416 -2.1411238
-3.6882317 -4.7241192 -2.1814044
-3.9411042 -5.0480142 -2.1639907
-4.2261219 -5.4130826 -2.142911
-4.5631962 -5.8448291 -2.1262667
-3.7030551 -4.7125092 -2.1814044
-3.959285 -5.0385871 -2.1652713
-4.2454667 -5.402782 -2.1441026
-3.7198272 -4.7016778 -2.1820884
-3.975971 -5.0254312 -2.1652713
-4.2633586 -5.3886747 -2.1441026
-3.7334092 -4.6884985 -2.1814044
-3.9940999 -5.0158796 -2.1665516
-4.2778878 -5.3722668 -2.142911
-3.7548144 -4.683424 -2.1848247
-4.0118966 -5.0040855 -2.167192
-4.3004565 -5.3640094 -2.145294
-3.7718699 -4.6745296 -2.1861928
-4.0275979 -4.991457 -2.167192
-4.317287 -5.3504729 -2.145294
-3.7817979 -4.6568213 -2.1834567
-4.0468426 -4.9831915 -2.1691127
-4.3376856 -5.3413291 -2.1470811
-4.6745615 -5.7561502 -2.1262667
-3.7984092 -4.6457095 -2.1841407
