# .PCD v0.7 - Point Cloud Data file format
VERSION 0.7
FIELDS x y z
SIZE 4 4 4
TYPE F F F
COUNT 1 1 1
WIDTH 1472
HEIGHT 1
VIEWPOINT 0 0 0 1 0 0 0
POINTS 1472
DATA ascii
-9.013896 1.2491769 -2.1561904
-11.017022 1.526777 -2.0955515
-12.210235 1.7334247 -2.0261824
-8.1489363 1.1568629 -2.1546633
-9.0097036 1.2790616 -2.1561904
-9.8741875 1.4017879 -2.1198678
-11.068329 1.5713141 -2.1062903
-12.23012 1.7754622 -2.0303974
-9.8987761 1.437018 -2.1261053
-9.0072641 1.3365034 -2.1575739
-9.8942118 1.4681093 -2.1261053
-11.048515 1.6393856 -2.1044388
-12.274984 1.8629893 -2.0398004
-8.1508465 1.2370639 -2.1582088
-8.9970102 1.3654872 -2.1561904
-11.019703 1.6724737 -2.0999954
-12.294091 1.9076189 -2.0440156
-8.146699 1.2640866 -2.1582088
-9.9209881 1.539395 -2.1340058
-11.128684 1.7267878 -2.1218433
-12.325414 1.9499477 -2.0501761
-8.9920988 1.4225991 -2.1571128
-10.979856 1.7370732 -2.0944407
-8.1462364 1.3164841 -2.1602349
-9.9555378 1.6088789 -2.1435697
-8.1382408 1.3414406 -2.1592216
-8.9865637 1.4812711 -2.158035
-9.9639454 1.6423746 -2.1464806
-10.778363 1.7766165 -2.0581508
-8.9796829 1.510741 -2.1575739
-9.9200573 1.7027936 -2.1394117
-8.9659052 1.5680254 -2.1566515
-9.9185123 1.7346245 -2.1402431
-10.727571 1.8761189 -2.0518558
-8.9628525 1.5965266 -2.1571128
-9.9765711 1.7770973 -2.1539652
-10.725495 1.910501 -2.0525963
-10.722967 1.9467599 -2.0533369
-8.9561825 1.6550806 -2.158035
-9.9668102 1.8418422 -2.154381
-8.9544697 1.6854893 -2.158957
-10.735282 2.0206895 -2.0581508
-9.977766 1.9105796 -2.1593711
-10.746256 2.0577328 -2.0614836
-8.9510403 1.7447696 -2.1608016
-9.9694548 1.9432828 -2.1589553
-12.651037 2.5072641 -2.1189153
-8.9455147 1.7728797 -2.1608016
-9.9652195 1.9749715 -2.1593711
-10.831066 2.1465704 -2.080369
-11.015015 2.2190161 -2.1170292
-8.9415045 1.8321754 -2.1626461
-12.728788 2.6499078 -2.1361001
-8.9452305 1.8622383 -2.1649516
-9.9726162 2.0761218 -2.1651926
-12.758548 2.7002769 -2.1425848
-9.9838657 2.1458209 -2.1705983
-11.094965 2.3846281 -2.1381364
-12.754826 2.7833338 -2.1448545
-11.10086 2.4224083 -2.1407287
-12.83801 2.8461187 -2.160418
-8.9413338 1.9822464 -2.1700242
-12.830427 2.8891098 -2.1607425
-10.040664 2.2609208 -2.1876469
-11.143989 2.5093637 -2.1522081
-8.9340382 2.0412443 -2.1714072
-10.001091 2.2850437 -2.180578
-11.143715 2.5461102 -2.1536894
-12.915841 2.9937303 -2.1782515
-9.970994 2.3111515 -2.1755881
-11.156722 2.5859888 -2.1577625
-12.905299 3.0816147 -2.1798728
-9.9858913 2.3844986 -2.1822412
-11.07433 2.6444035 -2.1451724
-12.947344 3.134685 -2.1886272
-8.9315195 2.1624126 -2.1774018
-10.003068 2.4218457 -2.1876469
-12.989182 3.1880436 -2.1973817
-11.17393 2.7425113 -2.1677608
-13.005915 3.2355053 -2.201921
-8.9271994 2.2208357 -2.1797075
-10.000942 2.4879529 -2.1905577
-11.150001 2.7738063 -2.1647985
-13.024389 3.2835858 -2.2067847
-8.9277267 2.2507739 -2.1815519
-9.9684162 2.5131428 -2.1851521
-11.164101 2.8145876 -2.1692421
-12.927387 3.3047628 -2.1921937
-11.168036 2.8550014 -2.1718342
-13.000415 3.3694 -2.2064605
-8.9163694 2.3109121 -2.1824741
-11.145188 2.8885691 -2.1692421
-12.928683 3.3941867 -2.1960847
-8.9222431 2.3423698 -2.1857021
-10.020958 2.6308172 -2.2022009
-11.147714 2.9640927 -2.1733155
-12.896967 3.4750388 -2.1944635
-9.9716482 2.6868227 -2.1951318
-9.970233 2.7219343 -2.1967952
-11.167627 3.0488303 -2.1810918
-12.984587 3.5887454 -2.2132695
-9.9993439 2.7636688 -2.2051117
-11.157993 3.0839024 -2.1810918
-12.968737 3.6746709 -2.2145665
-10.01705 2.8383152 -2.2130122
-11.154864 3.160713 -2.1844246
-12.941952 3.7110441 -2.2119725
-11.175108 3.2044101 -2.1903496
-11.136107 3.2332304 -2.1847949
-12.887419 3.7856426 -2.2067847
-9.9912205 2.9348924 -2.213428
-12.953025 3.8491604 -2.2200785
-11.164557 3.3176937 -2.1944227
-12.919402 3.885838 -2.216512
-9.9758062 3.0004768 -2.2142596
-11.166669 3.3586588 -2.1970148
-12.884473 3.9195144 -2.212621
-9.9663305 3.0318024 -2.2142596
-11.127857 3.385144 -2.1914604
-12.911015 3.9744127 -2.21943
-9.963356 3.1013298 -2.2180021
-11.141421 3.4680305 -2.1984961
-12.849315 4.0464401 -2.2132695
-9.9492846 3.1331775 -2.2171705
-11.172976 3.5185363 -2.2070131
-12.780123 4.0688267 -2.2035422
-9.9375277 3.1638255 -2.2167547
-12.769156 4.1095619 -2.2038665
-11.15252 3.5892715 -2.2073834
-12.791114 4.1634898 -2.210027
-13.825168 4.500073 -2.0433397
-9.9261913 3.2309616 -2.2188339
-11.181671 3.6396184 -2.2155302
-13.862843 4.5632329 -2.0511334
-11.177008 3.6791368 -2.2170115
-12.767707 4.2472482 -2.2106755
-12.782358 4.2967734 -2.2155392
-13.92964 4.6824303 -2.0653291
-9.9021358 3.3285902 -2.2204971
-11.200245 3.7649477 -2.2262688
-12.793091 4.3451581 -2.2197542
-13.969246 4.744638 -2.073401
-11.145559 3.7855759 -2.217752
-12.799144 4.394608 -2.223321
-14.011504 4.810874 -2.0820298
-9.8933868 3.3969111 -2.2234077
-11.184994 3.8403869 -2.2281203
-14.045993 4.874845 -2.089545
-9.8950043 3.4341905 -2.2263186
-11.177768 3.8793902 -2.2292314
-12.790985 4.4843493 -2.2268877
-14.08481 4.9379473 -2.0976171
-11.267535 3.9502482 -2.249598
-12.795437 4.5311027 -2.23013
-9.8898296 3.5021729 -2.2300611
-12.817503 4.5868087 -2.2366147
-14.170106 5.0708442 -2.1151531
-11.23994 4.0222697 -2.2492278
-12.807792 4.6312981 -2.2375877
-9.8774233 3.571677 -2.2325561
-9.8735027 3.6053743 -2.2342191
-11.246964 4.1069026 -2.2558932
-12.739553 4.69734 -2.2307785
-14.284304 5.2669215 -2.1396475
-11.259822 4.1517324 -2.2610776
-12.708087 4.7311463 -2.2278602
-14.321512 5.3318148 -2.1477196
-11.278035 4.1987462 -2.2673726
-12.705258 4.7781248 -2.23013
-14.364927 5.4022841 -2.1569049
-11.247493 4.2298961 -2.26404
-12.68465 4.8159122 -2.2291572
-11.210263 4.2561393 -2.2592261
-12.714679 4.8756156 -2.2372632
-14.462016 5.5978298 -2.179451
-11.182546 4.3284411 -2.2592261
-12.829014 5.0121446 -2.2628784
-14.512612 5.6699066 -2.1897497
-11.256762 4.3978844 -2.2770007
-12.825173 5.0597301 -2.2651482
-14.563739 5.7456217 -2.2003269
-14.563005 5.8012152 -2.2031105
-11.214565 4.4673543 -2.2744083
-12.718987 5.1129985 -2.2521782
-14.598001 5.8683572 -2.2111824
-12.694647 5.1521802 -2.2508814
-14.894107 6.0448408 -2.259058
-11.152703 4.5263753 -2.2677429
-11.171167 4.5747952 -2.2744083
-12.638312 5.2220445 -2.2466662
-14.989452 6.1935158 -2.2793772
-12.600889 5.2555699 -2.2430997
-14.98894 6.2515764 -2.2824392
-11.192182 4.6680269 -2.2847769
-12.611604 5.3066096 -2.2479634
-14.956448 6.2932544 -2.2804906
-11.208259 4.7161212 -2.2910721
-12.641166 5.3684597 -2.2563934
-14.924558 6.3381724 -2.2788205
-14.922777 6.392828 -2.2816041
-11.215508 4.8046565 -2.2988486
-12.705016 5.4900517 -2.2739027
-14.726271 6.3634701 -2.2546043
-12.690357 5.533731 -2.2745509
-14.67604 6.3996034 -2.2501509
-11.178844 4.8746238 -2.2977376
-12.700007 5.5854902 -2.2794147
-14.896983 6.5517244 -2.2871709
-11.125693 4.8931036 -2.2899613
-14.810004 6.5721693 -2.2771506
-12.660069 5.6657748 -2.2787662
-14.829054 6.6364627 -2.2832739
-11.081306 4.9592285 -2.2873693
-14.753978 6.6585732 -2.2749236
-11.065672 4.9940152 -2.2873693
-12.654544 5.7643385 -2.2846026
-14.649538 6.6730886 -2.262398
-11.06427 5.0399442 -2.2907019
-12.625613 5.7991238 -2.2826571
-14.623103 6.7165995 -2.2615631
-11.050167 5.0754991 -2.2910721
-14.501288 6.7158976 -2.2459757
-11.039517 5.1126676 -2.2921829
-12.61396 5.8900285 -2.2871964
-14.542926 6.79075 -2.2557178
-12.64182 5.9514804 -2.2956266
-14.089676 6.6330981 -2.1886363
-12.597794 5.9845638 -2.2914116
-13.994878 6.6482472 -2.1775026
-12.62165 6.0445709 -2.2991934
-13.952487 6.6819158 -2.1741624
-12.61326 6.0893412 -2.3011386
-13.924292 6.7222719 -2.173049
-12.601167 6.1323919 -2.3024356
-13.897762 6.7633843 -2.172214
-12.616195 6.191535 -2.3089206
-13.880591 6.8120518 -2.173049
-12.599131 6.2350888 -2.3095689
-13.884552 6.8712211 -2.1772242
-12.621867 6.2957788 -2.3173509
-12.573257 6.370501 -2.3157296
-12.539761 6.4058762 -2.3134599
-12.507 6.7484078 -2.3348598
-12.49322 6.7945609 -2.3364811
-12.508158 6.8536949 -2.3432901
-12.515938 6.9091682 -2.3488023
-12.498606 7.0052848 -2.3539901
-0.6277371 -8.1027031 -1.9256312
-0.70548654 -8.0963039 -1.9256312
-1.2718772 -8.0031948 -1.9200977
-1.2578053 -7.3047223 -1.9404125
-1.3754628 -7.9880195 -1.9205587
-1.4270188 -7.978971 -1.9205587
-1.3287925 -7.2901769 -1.9399061
-1.4211949 -7.2707567 -1.9393996
-1.5560678 -7.9607592 -1.9219422
-1.4713032 -7.2706528 -1.9419321
-1.6337996 -7.9451704 -1.9219422
-1.5613692 -7.2399697 -1.938893
-1.7087606 -7.9234142 -1.9205587
-1.6303691 -7.2227612 -1.9383866
-1.8104393 -7.9047952 -1.9214811
-1.6765388 -7.2101974 -1.93788
-1.7221639 -7.1954575 -1.936867
-1.8867056 -7.8829374 -1.9205587
-1.9412934 -7.8857074 -1.9242479
-1.7933455 -7.1820359 -1.93788
-1.8599812 -7.1610699 -1.936867
-2.0401366 -7.854682 -1.9228644
-2.0886734 -7.8278174 -1.9196366
-1.7842432 -6.6035371 -1.9614354
-1.9543537 -7.1439161 -1.938893
-2.1621585 -7.8017807 -1.9182533
-1.8465118 -6.5824037 -1.960333
-2.0224974 -7.1188898 -1.9373736
-2.4352472 -8.5717077 -1.8940758
-2.234261 -7.7713146 -1.9159477
-1.927568 -6.5450978 -1.9564741
-2.0918319 -7.10286 -1.9383866
-2.5185204 -8.5516891 -1.8949074
-2.3087564 -7.7495093 -1.9159477
-1.9948131 -6.5369778 -1.9597816
-2.1605895 -7.0802245 -1.93788
-2.383239 -7.7228556 -1.9150255
-2.6264482 -8.510972 -1.8932441
-2.0352728 -6.52248 -1.9592304
-2.6543391 -8.5064144 -1.8940758
-2.2272205 -7.0595479 -1.93788
-2.4560785 -7.6959143 -1.9141032
-2.2733979 -7.0427804 -1.9373736
-2.7337456 -8.468895 -1.8915807
-2.1379323 -6.4834828 -1.9575766
-2.3163931 -7.024682 -1.9363606
-2.5280125 -7.6664381 -1.9127198
-2.7869039 -8.4515505 -1.8915807
-2.2024367 -6.4659181 -1.9586792
-2.3855622 -7.0035381 -1.936867
-2.8693726 -8.4239092 -1.8915807
-2.6268137 -7.6331496 -1.9127198
-2.262641 -6.4430594 -1.958128
-2.6753669 -7.618331 -1.9131809
-2.9453967 -8.3872633 -1.8895016
-2.4707153 -6.9616356 -1.933828
-2.4944401 -6.9552264 -1.9343345
-2.7258339 -7.60042 -1.9131809
-2.3450041 -6.4114943 -1.9575766
-2.8006907 -7.57938 -1.9145644
-2.4082341 -6.3900676 -1.958128
-2.6051114 -6.912467 -1.933828
-2.8698566 -7.5430522 -1.9122587
-3.1881704 -8.3796997 -1.9057187
-3.4658258 -9.1094809 -1.8363385
-2.6490023 -6.8936939 -1.9333215
-2.4715481 -6.3720331 -1.9597816
-2.9413133 -7.5092058 -1.9108753
-3.5403571 -9.0385714 -1.8289325
-2.7171879 -6.8733463 -1.934841
-3.3157837 -8.3110762 -1.9019763
-3.5912526 -9.001544 -1.8259701
-2.3540499 -5.8440914 -1.9659735
-2.5507646 -6.3324485 -1.9575766
-2.7837689 -6.8487391 -1.9353476
-3.0382113 -7.4747286 -1.9117976
-3.3531771 -8.2496195 -1.8928281
-2.5930636 -6.3194017 -1.9586792
-3.0856736 -7.4531546 -1.9113364
-3.3988981 -8.2097187 -1.88867
-2.4300668 -5.8149629 -1.9665692
-2.8468442 -6.8122783 -1.9328151
-3.1337399 -7.4330726 -1.9113364
-2.671109 -6.2805443 -1.9570254
-3.476017 -8.1731138 -1.8878384
-2.4905515 -5.7997055 -1.969548
-3.1829684 -7.4121256 -1.9113364
-2.7134678 -6.2644548 -1.9575766
-2.9322803 -6.7696166 -1.9312955
-3.5254805 -8.1391096 -1.8853434
-2.7558756 -6.2543192 -1.9597816
-2.9724164 -6.7457476 -1.9297761
-3.8856671 -8.8183241 -1.8156016
-2.5634646 -5.7657595 -1.9689522
-3.2999756 -7.356513 -1.9104142
-2.6045787 -5.7577825 -1.971931
-2.8152871 -6.2235823 -1.9586792
-3.0374079 -6.7146111 -1.9292696
-3.3222687 -7.3443356 -1.9099531
-3.6573224 -8.0850182 -1.886175
-3.9674215 -8.6976652 -1.8011597
-4.416151 -9.6014032 -1.7363108
-3.7080495 -8.0618801 -1.886175
-2.8757076 -6.1980147 -1.9592304
-3.1009083 -6.6833901 -1.9287629
-2.6754873 -5.7167478 -1.969548
-3.4209697 -7.3096294 -1.9122587
-3.785831 -8.0234842 -1.8857592
-2.9342446 -6.1683898 -1.9586792
-3.4668286 -7.2879915 -1.9122587
-3.1878028 -6.6445289 -1.9292696
-3.8350275 -7.993578 -1.8845117
-2.7514291 -5.6890712 -1.971931
-4.6501484 -9.5342178 -1.7427957
-3.235734 -6.6342382 -1.9323086
-3.8711317 -7.9369969 -1.877027
-4.2208962 -8.6541204 -1.8141203
-2.7872684 -5.6694717 -1.9713353
-3.0153625 -6.1334286 -1.9597816
-3.5580895 -7.2373681 -1.9108753
-2.8102925 -5.6687508 -1.9743139
-3.584662 -7.2307615 -1.9122587
-4.7617426 -9.5297461 -1.7502532
-3.3001323 -6.6046038 -1.9328151
-3.949764 -7.9047213 -1.8782743
-4.2835684 -8.5727682 -1.8056034
-3.0775576 -6.1110702 -1.9619869
-3.6300237 -7.2080956 -1.9122587
-2.8628502 -5.6381078 -1.9731225
-3.3488462 -6.5952306 -1.9363606
-3.9856713 -7.8493962 -1.8712053
-4.3414893 -8.4840136 -1.7956052
-4.910665 -9.5183144 -1.7596562
-2.897449 -5.6161094 -1.971931
-3.1389019 -6.0841155 -1.9630893
-3.6994085 -7.1705427 -1.9117976
-4.0407624 -7.8321872 -1.8732845
-2.9186001 -5.6137552 -1.9743139
-3.1806352 -6.0710855 -1.9652944
-3.4290094 -6.5451736 -1.9343345
-3.765342 -7.1295385 -1.9104142
-4.1166716 -7.7947679 -1.8737003
-3.4750712 -6.5274105 -1.9358541
-2.9944696 -5.5823221 -1.9766968
-4.1567507 -7.7490582 -1.8691263
-4.486445 -8.363678 -1.7881989
-7.0450644 -13.035008 -1.7327362
-3.8502631 -7.1238828 -1.9187144
-3.2804627 -6.0242987 -1.9669483
-4.202549 -7.7176342 -1.8678788
-3.0507238 -5.5561361 -1.9778885
-3.5600142 -6.4836822 -1.9363606
-3.3230193 -6.0097189 -1.9691534
-3.6044497 -6.4679461 -1.9383866
-4.2701602 -7.6625195 -1.8645523
-4.4986491 -8.0725269 -1.7411704
-3.9913771 -7.0547338 -1.9205587
-4.3137741 -7.624568 -1.8620572
-4.541976 -8.0279131 -1.7378377
-2.9224451 -5.1256714 -1.9936885
-3.1442697 -5.514729 -1.9808671
-3.4182091 -5.9516573 -1.9680508
-3.6828647 -6.4124656 -1.9358541
-4.3794832 -7.625392 -1.8691263
-4.6227632 -7.9907489 -1.7393188
-3.1999469 -5.4892402 -1.9826543
-3.4565721 -5.9294591 -1.9680508
-3.7462077 -6.3801551 -1.936867
-4.1120172 -7.0031643 -1.9242479
-4.4663458 -7.6066203 -1.8749478
-3.0062978 -5.0813484 -1.994969
-3.2353272 -5.468462 -1.9826543
-3.5143144 -5.8976579 -1.9686021
-3.788322 -6.3574924 -1.9373736
-4.4993515 -7.5507293 -1.8682946
-4.8191452 -8.0874004 -1.7737572
-4.8843808 -8.1354065 -1.7878287
-4.1970873 -6.9411454 -1.9219422
-3.0707927 -5.0426345 -1.994969
-3.5727642 -5.8669362 -1.9697046
-3.8521922 -6.3257923 -1.938893
-4.5624666 -7.4921541 -1.8645523
-4.9466438 -8.1230221 -1.7919021
-3.3277054 -5.4239464 -1.9856331
-4.2255387 -6.8873572 -1.9145644
-4.6110277 -7.4600658 -1.8641365
-4.9807754 -8.0582714 -1.7848663
-3.1219339 -5.0155969 -1.9962494
-4.2545018 -6.8351431 -1.9076475
-3.1437135 -5.0153971 -2.0000908
-3.3826604 -5.3966064 -1.9874204
-3.6502812 -5.8235621 -1.9708073
-4.2852564 -6.8365841 -1.9117976
-4.6619658 -7.4375768 -1.8657995
-5.0701375 -8.0325775 -1.7896802
-3.6888244 -5.7992239 -1.9708073
-3.9730275 -6.2460208 -1.93788
-4.6985922 -7.3866863 -1.8608099
-3.193604 -4.9860277 -2.0007312
-4.3613167 -6.8091245 -1.9159477
-3.4510407 -5.3508649 -1.9868248
-3.7241464 -5.7743173 -1.9702559
-4.0153389 -6.2258134 -1.9393996
-5.8236351 -8.9676113 -1.7567381
-4.4318032 -6.7750893 -1.9182533
-4.7751846 -7.3000307 -1.8541566
-5.2547164 -8.0331116 -1.8085659
-3.2587748 -4.9459486 -2.0013714
-3.5063241 -5.3216624 -1.9886118
-4.8316565 -7.3331628 -1.8666314
-3.274297 -4.9356866 -2.0013714
-3.8005369 -5.7289424 -1.9713585
-4.099689 -6.1798849 -1.9414256
-5.3325591 -8.0383177 -1.8174531
-3.2929442 -4.9301023 -2.0032921
-3.5386319 -5.2979388 -1.9880161
-4.5063634 -6.7467995 -1.9224033
-4.8961887 -7.2808065 -1.8649681
-4.1588221 -6.1402459 -1.9414256
-4.5378332 -6.6998329 -1.917331
-3.8764684 -5.6848207 -1.9730123
-4.9298782 -7.2296405 -1.8599781
-6.1371007 -8.9362202 -1.781056
-7.2172804 -10.509068 -1.7917147
-3.3552692 -4.885601 -2.0026519
-4.5810032 -6.6703901 -1.917331
-5.4887533 -7.9921632 -1.8267106
-3.6243269 -5.2420087 -1.9886118
-4.9564357 -7.1686907 -1.8524934
-3.9318445 -5.6466618 -1.9730123
-3.406363 -4.8593736 -2.0052128
-4.2590976 -6.0758481 -1.9424386
-5.0273299 -7.1717758 -1.8616414
-5.5798855 -7.9600286 -1.8315246
-3.6797912 -5.212575 -1.9909949
-5.5790467 -7.9029479 -1.8226374
-3.6928313 -5.1963201 -1.9892077
-3.9903204 -5.6149278 -1.9752175
-4.6976614 -6.6102538 -1.9214811
-4.3239064 -6.0417976 -1.9449711
-4.7229533 -6.5993862 -1.9228644
-5.1062922 -7.1350255 -1.8649681
-3.4699457 -4.8165126 -2.0058529
-4.0451651 -5.5779214 -1.9757687
-4.7563286 -6.5585527 -1.9196366
-5.6377444 -7.7739463 -1.8093064
-4.3874097 -6.0078254 -1.9475037
-5.1387815 -7.0367036 -1.8520774
-3.5202222 -4.7869482 -2.0077736
-5.6961637 -7.7458858 -1.8115282
-6.4086981 -8.6577005 -1.7697077
-3.7950728 -5.1268764 -1.9903991
-4.0994878 -5.5381193 -1.9757687
-3.8134425 -5.1179905 -1.9915906
-4.4471893 -5.9685369 -1.9485166
-4.8197055 -6.4684877 -1.9113364
-5.2025843 -6.982347 -1.8508301
-6.5588846 -8.7451477 -1.7959712
-4.8353329 -6.4470868 -1.909492
-5.2820096 -7.0426536 -1.8712053
-3.5794687 -4.7380605 -2.0064931
-4.1580558 -5.5039229 -1.9779737
-4.4936743 -5.9481735 -1.9515556
-3.8670175 -5.0872278 -1.9939736
-4.9288683 -6.4396996 -1.9214811
-5.33989 -6.9767108 -1.867463
-7.8455958 -10.184038 -1.8067453
-3.6204946 -4.6996121 -2.0045724
-3.9044483 -5.0682001 -1.9963566
-4.2097435 -5.4644909 -1.9779737
-4.55898 -5.9178205 -1.9556078
-5.9529357 -7.7272558 -1.8378198
-5.3932238 -6.9529033 -1.8703737
-4.2482595 -5.4394808 -1.9790763
-8.002284 -10.180052 -1.8198276
-3.670939 -4.66996 -2.0071335
-4.6488857 -5.9140487 -1.9692832
-5.0128284 -6.3770361 -1.9219422
-5.4186683 -6.8933225 -1.8637207
-3.9660246 -5.0128593 -1.9945693
-4.7183218 -5.9232521 -1.9824524
-5.0817924 -6.3795433 -1.9325478
-5.4845881 -6.8409905 -1.8637207
-3.728565 -4.6192117 -2.0058529
-4.0124316 -4.9708862 -1.9933779
-4.3447104 -5.3825364 -1.9834865
-4.7394605 -5.8715811 -1.9753612
-6.13659 -7.6024446 -1.8407823
-5.1170278 -6.2987466 -1.9228644
-5.5520878 -6.8342791 -1.8716213
-7.0857487 -8.6632605 -1.8387711
-4.0541186 -4.9566936 -1.9981439
-4.3757272 -5.3499022 -1.9818327
-4.8017778 -5.8708053 -1.9854913
-5.150209 -6.2968078 -1.9274757
-8.307477 -10.092124 -1.8370851
-3.7727337 -4.5832086 -2.0058529
-4.4080276 -5.3208237 -1.9812814
-5.1735301 -6.244843 -1.9214811
-5.5899777 -6.7475271 -1.862473
-4.0990658 -4.9146171 -1.9969524
-4.8554325 -5.8214707 -1.9844784
-5.6386366 -6.7605009 -1.8712053
-7.2452693 -8.6284571 -1.8510921
-6.277657 -7.476119 -1.839301
-3.8389499 -4.5427833 -2.0096943
-4.1270213 -4.8836694 -1.9951652
-4.4610629 -5.2789545 -1.9818327
-5.217989 -6.1746554 -1.9154866
-7.2865529 -8.5677309 -1.8478498
-9.0780611 -10.674235 -1.6386541
-4.9135962 -5.7775426 -1.9854913
-5.6969342 -6.6986132 -1.8691263
-6.4015141 -7.4793372 -1.8548539
-3.6202488 -4.2015057 -2.0186028
-3.8885636 -4.5129008 -2.0128956
-4.5102754 -5.2344327 -1.9812814
-4.9470153 -5.7412944 -1.9839718
-5.7924304 -6.7224469 -1.886175
-7.4238534 -8.5041323 -1.8546588
-3.9279535 -4.4710946 -2.0109749
-4.9942379 -5.6848207 -1.9809328
-5.3329968 -6.0704217 -1.9145644
-3.6816795 -4.1628466 -2.0227072
-4.5787759 -5.177186 -1.9818327
-5.3621216 -6.0629091 -1.9177922
-8.6250095 -9.6873064 -1.8228894
-4.6023107 -5.1691532 -1.9845891
-5.0279698 -5.6472383 -1.9794133
-7.5357008 -8.4104815 -1.8553073
-3.7097394 -4.1403837 -2.0233912
-5.4063568 -6.0339527 -1.9196366
-7.5898385 -8.4175472 -1.8621165
-3.9815629 -4.415772 -2.0090542
-5.9449229 -6.5932455 -1.8870066
-6.6636257 -7.3903265 -1.8748503
-4.6508245 -5.1255474 -1.9845891
-4.3174272 -4.7265282 -1.9975481
-5.1308293 -5.6170049 -1.9915694
-6.0137649 -6.5836039 -1.895323
-4.0314612 -4.3857179 -2.0128956
-5.1327372 -5.583766 -1.9854913
-3.7757406 -4.0802855 -2.0233912
-4.3491554 -4.6999507 -1.9981439
-5.5038643 -5.9477963 -1.9200977
-6.7505074 -7.294992 -1.8726283
-8.8837948 -9.5400524 -1.8320749
-8.9153814 -9.5105391 -1.8320749
-4.0929685 -4.3387976 -2.0154567
-4.3980017 -4.6621518 -1.9999311
-5.5727248 -5.9074306 -1.9242479
-6.0636597 -6.4278517 -1.8782743
-3.8294175 -4.0325432 -2.0240753
-6.8698759 -7.2342777 -1.8796642
-5.2452893 -5.4888825 -1.9875174
-6.1509948 -6.4366493 -1.8924123
-4.1299238 -4.2931256 -2.0128956
-4.4499755 -4.6258245 -2.0029099
-4.8128834 -5.0030732 -1.990653
-6.9573259 -7.2322574 -1.8907734
-3.865335 -3.9928989 -2.0227072
-6.2169237 -6.4220953 -1.8998972
-5.2747855 -5.4147177 -1.9789069
-5.6600676 -5.8102207 -1.9219422
-4.177578 -4.2600474 -2.0160968
-4.4834809 -4.5719895 -1.9981439
-6.2185464 -6.3413067 -1.8878384
-9.2749233 -9.3954945 -1.855456
-4.8824992 -4.9459705 -1.9928583
-5.3024244 -5.3713546 -1.9758679
-5.671133 -5.7448564 -1.9127198
-3.9205551 -3.9466438 -2.0247591
-4.2142582 -4.2157311 -2.0141761
-4.52986 -4.5314431 -1.9993354
-4.9302607 -4.9010892 -1.9934095
-5.3432083 -5.3115935 -1.9723223
-8.1123276 -8.0110188 -1.8731407
-3.9569221 -3.9075069 -2.0240753
-5.7258654 -5.6543589 -1.9067253
-9.3579454 -9.1831961 -1.842652
-4.2545319 -4.1750832 -2.0141761
-4.5813255 -4.4957743 -2.0029099
-5.370491 -5.2702031 -1.9697897
-5.7755461 -5.6676941 -1.917331
-9.3982754 -9.1617908 -1.8446004
-4.9765496 -4.8513274 -1.9928583
-5.7497172 -5.6050401 -1.9025754
-6.4367852 -6.2355003 -1.9048871
-4.0158625 -3.8659005 -2.0288634
-4.2985091 -4.1379924 -2.0160968
-4.6228957 -4.4502654 -2.0023141
-5.4417429 -5.2385349 -1.9773873
-5.8423057 -5.6241393 -1.9214811
-7.2213335 -6.9516711 -1.8885516
-5.0265059 -4.8051138 -1.9939607
-5.0387907 -4.7866492 -1.9928583
-5.4861856 -5.2116566 -1.9809328
-7.3000531 -6.9347582 -1.8970685
-4.0466208 -3.8200159 -2.0254433
-4.6731114 -4.4114237 -2.0052929
-9.4916449 -8.9007864 -1.8287346
-4.3453946 -4.074892 -2.0128956
-5.9054847 -5.5378661 -1.9182533
-9.5543365 -8.9033298 -1.835415
-6.5649586 -6.1176395 -1.9073821
-8.4231997 -7.7972407 -1.8857861
-4.7202072 -4.369431 -2.0070801
-5.5345778 -5.1232829 -1.9743483
-7.3890057 -6.8399014 -1.8970685
-4.097002 -3.7687075 -2.0261273
-5.9841518 -5.5046387 -1.9265532
-8.5769062 -7.8400321 -1.9091314
-9.708066 -8.8740091 -1.8484973
-4.399755 -4.0217552 -2.0141761
-5.5723715 -5.0936279 -1.9763743
-6.6508141 -6.0794177 -1.9152827
-6.0166936 -5.4632635 -1.9256312
-4.1441531 -3.7392778 -2.0315995
-4.7825809 -4.3153324 -2.0100589
-5.1642084 -4.6596756 -1.9945121
-6.0598354 -5.4678016 -1.9339314
-6.6696005 -6.0179939 -1.909461
-4.4402628 -3.9798267 -2.0148163
-5.6420584 -5.0570016 -1.9834653
-6.1313496 -5.4609156 -1.9454594
-6.7302365 -5.9943171 -1.9156985
-7.530694 -6.7072482 -1.9000309
-9.9798698 -8.8294449 -1.8727133
-4.8259587 -4.2696486 -2.0106547
-4.1906891 -3.6842031 -2.0309155
-4.4825311 -3.9407732 -2.016737
-5.2254014 -4.5938601 -1.9950633
-5.6903424 -5.0026088 -1.9834653
-7.5576143 -6.6442027 -1.8959576
-8.684351 -7.5865259 -1.8945405
-5.7147732 -4.9923449 -1.9865043
-4.8623958 -4.2193718 -2.0088675
-7.6196604 -6.6120043 -1.9007716
-5.2787876 -4.5501018 -1.998371
-8.7056217 -7.4563527 -1.8831919
-4.2393484 -3.6309958 -2.0315995
-4.5301743 -3.8800876 -2.0154567
-10.155075 -8.6426468 -1.8741051
-4.9012198 -4.1712656 -2.0082717
-6.252737 -5.3214965 -1.9454594
-6.8709283 -5.8476186 -1.9177775
-8.7794256 -7.4244452 -1.8890284
-6.8817978 -5.8196893 -1.9156985
-7.7603116 -6.5626168 -1.9148432
-4.2668128 -3.5840898 -2.0281794
-4.5744653 -3.8425155 -2.0186577
-5.3304424 -4.47753 -1.9961659
-6.2541876 -5.253469 -1.9353145
-4.9373574 -4.1194935 -2.0064845
-5.8027964 -4.8415742 -1.9784002
-4.6082153 -3.7960176 -2.0173774
-5.382081 -4.4334893 -1.9994735
-5.8390756 -4.8099389 -1.9804263
-6.2983208 -5.188242 -1.9334702
-7.8686929 -6.4818363 -1.920768
-8.9219389 -7.3025227 -1.8942163
-4.3208556 -3.5365796 -2.0322838
-4.9833493 -4.0788245 -2.0094631
-8.9813261 -7.3015289 -1.9016738
-5.4150734 -4.4022803 -2.0011272
-7.0418196 -5.7247725 -1.9290049
-7.9546118 -6.4668431 -1.9315068
-10.518214 -8.4931917 -1.8999913
-4.6524663 -3.7567489 -2.0205784
-5.0132623 -4.0480824 -2.0106547
-5.8782806 -4.746563 -1.9778938
-4.3625441 -3.5000608 -2.0357039
-5.4433885 -4.3672204 -2.0011272
-10.76186 -8.578784 -1.9342279
-5.9079885 -4.7095346 -1.9778938
-7.093389 -5.6544733 -1.9281732
-9.0318518 -7.1534266 -1.8929193
-6.4776158 -5.130415 -1.9579095
-8.0486841 -6.3747354 -1.9344693
-4.7035761 -3.6986918 -2.0218589
-5.0621238 -3.9806385 -2.0094631
-5.4933691 -4.3197513 -2.0038838
-5.9512591 -4.6798167 -1.9819458
-7.1707158 -5.6387458 -1.9389845
-9.0483131 -7.0718627 -1.8867587
-4.4053016 -3.4430385 -2.0350199
-8.0447721 -6.287528 -1.9237304
-5.980545 -4.6423326 -1.9819458
-6.5013142 -5.0465736 -1.9500704
-4.7412271 -3.6565113 -2.0231392
-5.103951 -3.9362502 -2.0112505
-5.539927 -4.2724819 -2.0060887
-7.203403 -5.5553818 -1.9335788
-8.0587521 -6.2150402 -1.9174353
-4.4366579 -3.3994491 -2.0343359
-6.0019174 -4.5987797 -1.9794133
-8.1562414 -6.2494626 -1.9359504
-6.0210118 -4.5801449 -1.9804263
-7.2743416 -5.533545 -1.9427271
-4.7767377 -3.6099977 -2.0231392
-5.1391325 -3.8838758 -2.0100589
-5.5737514 -4.212337 -2.0033324
-9.343009 -7.0149322 -1.919507
-6.578393 -4.939199 -1.9491482
-4.4832044 -3.3441133 -2.0357039
-5.6016483 -4.1783838 -2.0038838
-6.0701151 -4.5278225 -1.9824524
-7.2759914 -5.4273105 -1.9294207
-8.1795578 -6.1012988 -1.9226196
-9.4689932 -7.0143633 -1.9360434
-5.1853819 -3.8411849 -2.0136333
-4.8214364 -3.5468826 -2.0224991
-6.6200833 -4.8700542 -1.9473037
-9.5093126 -6.9495749 -1.9350706
-11.24758 -8.2199316 -1.9578874
-4.5217447 -3.3045714 -2.0384402
-5.6468763 -4.1268377 -2.0055375
-7.3681769 -5.3847947 -1.9398164
-5.2266507 -3.7945967 -2.0154207
-6.128087 -4.449048 -1.9824524
-6.6426783 -4.8226461 -1.9449983
-8.1908751 -5.9466515 -1.9070667
-4.867557 -3.5093024 -2.0276208
-9.5226355 -6.8200536 -1.9243708
-5.6893554 -4.0746818 -2.00664
-6.1566887 -4.4093828 -1.9824524
-4.5579195 -3.2415402 -2.0357039
-5.2619319 -3.7422259 -2.0148249
-6.1949277 -4.4057617 -1.9900498
-9.6599684 -6.8244634 -1.9431767
-4.9025669 -3.4635091 -2.0282612
-6.1818743 -4.3672991 -1.9814394
-6.7520924 -4.7701402 -1.9588317
-5.7329283 -4.0231934 -2.0082939
-4.5980773 -3.2040863 -2.039808
-5.3038774 -3.69591 -2.0172079
-8.4190254 -5.8666444 -1.9333583
-4.9418197 -3.420603 -2.030822
-6.799171 -4.7062149 -1.9592928
-5.7783136 -3.9713256 -2.010499
-7.5549293 -5.1923599 -1.9485486
-5.3365927 -3.6417422 -2.0160162
-6.2455525 -4.2620254 -1.9794133
-8.5327826 -5.8228526 -1.9463189
-9.7184782 -6.5873284 -1.92891
-4.6390753 -3.1444337 -2.039808
-5.8070216 -3.9360852 -2.0116014
-6.8367891 -4.6340766 -1.9569874
-4.9824414 -3.3543763 -2.0295417
-8.5773525 -5.7746124 -1.9481704
-9.7301455 -6.5063906 -1.9230736
-4.6603026 -3.1162689 -2.0404921
-5.3738518 -3.5934076 -2.0172079
-6.8787122 -4.5996838 -1.9606762
-7.6594982 -5.1217823 -1.9585283
-5.8685622 -3.896112 -2.0198708
-6.2816148 -4.1703358 -1.9738417
-9.7978001 -6.4580064 -1.9279373
-5.0181518 -3.3076053 -2.030822
-6.3164105 -4.1633244 -1.9804263
-6.907443 -4.5528903 -1.9602151
-7.6736984 -5.057951 -1.9535385
-5.4087162 -3.5407133 -2.0172079
-5.9073033 -3.8406463 -2.020422
-7.6610436 -4.9808445 -1.942311
-4.7128954 -3.0430789 -2.0418603
-5.0634279 -3.2694149 -2.0365844
-6.9304261 -4.4749207 -1.9546816
-8.6684666 -5.5971599 -1.9440972
-4.7213783 -3.0264192 -2.0411763
-5.4424543 -3.4886312 -2.0172079
-6.3787141 -4.0887766 -1.9834653
-5.939692 -3.7796311 -2.0187681
-6.3742828 -4.0561762 -1.9778938
-6.9862223 -4.4455743 -1.9620595
-8.6937904 -5.5321589 -1.941505
-5.1015468 -3.2238197 -2.0391452
-5.4600267 -3.4503541 -2.0154207
-5.9893785 -3.7585869 -2.0275886
-6.4389744 -4.0407271 -1.9900498
-8.7916393 -5.5171232 -1.9555765
-7.781002 -4.8470154 -1.9485486
-4.7746739 -2.952353 -2.0432284
-10.387493 -6.3804374 -2.0028372
-5.1357484 -3.1545937 -2.0365844
-5.5084248 -3.3835073 -2.0172079
-6.0071611 -3.6898525 -2.0215244
-7.0161471 -4.3096142 -1.9509928
-7.8772788 -4.8026552 -1.9610232
-7.0229287 -4.2498894 -1.9449983
-4.8086786 -2.8893454 -2.0418603
-5.1663351 -3.1042471 -2.0365844
-5.5412312 -3.3295071 -2.0172079
-6.0363464 -3.6270025 -2.0193193
-7.0952177 -4.201117 -1.9537593
-7.8780494 -4.6646357 -1.9460536
-5.1909952 -3.0516315 -2.0346637
-5.5729361 -3.2761631 -2.0172079
-6.0692267 -3.5679178 -2.0187681
-6.5583291 -3.8554466 -1.9915694
-8.9799643 -5.2790537 -1.9626123
-4.8634491 -2.837419 -2.0493846
-7.1020279 -4.1434441 -1.9482261
-7.9198351 -4.6205668 -1.9489644
-5.593977 -3.2401061 -2.0172079
-6.6232719 -3.8362875 -2.0037253
-5.2222161 -3.0016942 -2.0353038
-6.1188107 -3.5170507 -2.0237296
-4.8806691 -2.7850142 -2.0452805
-7.1516171 -4.0808659 -1.9509928
-6.1413946 -3.4774649 -2.0237296
-6.6301441 -3.7542114 -1.9946084
-8.0128975 -4.5371733 -1.9572809
-7.1778212 -4.0345974 -1.9509928
-9.1987638 -5.1705532 -1.9881634
-4.9006133 -2.7343719 -2.0425441
-5.2583809 -2.9339938 -2.0346637
-5.6502814 -3.1526608 -2.018995
-6.1916637 -3.4547334 -2.0331013
-8.0651636 -4.5000815 -1.9631023
-4.926877 -2.7063336 -2.0459645
-7.2152047 -3.9633121 -1.9505315
-5.2917957 -2.8851812 -2.0365844
-5.6808243 -3.0972867 -2.018995
-6.7235427 -3.6657956 -2.0047383
-8.0314684 -4.3788996 -1.9443903
-6.2120938 -3.3616698 -2.0253835
-5.3164968 -2.8554609 -2.0391452
-6.7242846 -3.6115761 -1.9981539
-8.0605478 -4.3292756 -1.9448061
-4.9592986 -2.6424594 -2.0452805
-5.7136645 -3.0444078 -2.0201867
-7.2393517 -3.8573384 -1.9436147
-9.7080288 -5.1314611 -1.8040771
-6.2446537 -3.3007934 -2.0253835
-5.3407946 -2.8016028 -2.0378647
-5.7348952 -3.0083349 -2.0207825
-7.3158116 -3.837631 -1.9574484
-6.2755008 -3.2668192 -2.0286911
-6.7549219 -3.5163901 -1.9935954
-8.153964 -4.2446852 -1.9539543
-5.0065517 -2.564189 -2.0473325
-6.2936063 -3.2233753 -2.0275886
-7.354701 -3.7668328 -1.9579095
-5.3883562 -2.7384005 -2.0423462
-5.7715683 -2.9331515 -2.0201867
-6.7837925 -3.447571 -1.9920758
-9.4422579 -4.7986217 -1.9955695
-6.7600384 -3.4088204 -1.9819458
-7.3521595 -3.7074037 -1.9509928
-9.4958944 -4.7884045 -2.003716
-5.0389004 -2.5210941 -2.0507529
-5.8040853 -2.8811748 -2.0219738
-7.3997121 -3.6732514 -1.9574484
-9.47826 -4.7050524 -1.9937179
-5.4177074 -2.6670184 -2.0404255
-6.335381 -3.1187692 -2.024832
-11.112786 -5.4248734 -2.0316944
-6.8608761 -3.3492396 -1.9986603
-9.5127888 -4.6438107 -1.9944584
-5.4365239 -2.6328015 -2.0410659
-5.843997 -2.830133 -2.0261443
-6.3571205 -3.0786285 -2.0253835
-7.4440179 -3.6049914 -1.9597539
-9.7733345 -4.6951885 -1.7813804
-6.8817849 -3.3060648 -1.9986603
-6.8874702 -3.2807295 -1.9971409
-9.7846289 -4.620995 -1.7778137
-5.8696518 -2.7720652 -2.0255485
-6.3903828 -3.0179913 -2.0264859
-7.4630589 -3.524585 -1.9556038
-8.2662764 -3.9039214 -1.9431429
-6.8764124 -3.2226102 -1.9880239
-9.6298342 -4.5129929 -2.003716
-5.4832506 -2.5475664 -2.0429866
-5.1125407 -2.3547509 -2.0487006
-5.9046612 -2.719588 -2.0285273
-6.4120731 -2.9532936 -2.0242808
-9.6881151 -4.4621835 -2.0096409
-6.932219 -3.1665037 -1.9951148
-5.509614 -2.4946356 -2.0436268
-7.5275526 -3.4083149 -1.9579095
-9.7131481 -4.3979058 -2.0089004
-5.9322362 -2.6635656 -2.0291228
-6.434865 -2.8892453 -2.0226271
-8.3736057 -3.7597373 -1.9510436
-5.1455612 -2.290951 -2.0500689
-6.9516907 -3.0950916 -1.9920758
-7.5025949 -3.3403697 -1.9459203
-5.9458203 -2.6236582 -2.0279312
-6.9902382 -3.0845189 -2.0001798
-8.4299278 -3.7197976 -1.9585283
-9.7675047 -4.3100181 -2.0114925
-6.4640646 -2.8281124 -2.0231783
-7.5311403 -3.2949717 -1.9477648
-9.8077555 -4.2523274 -2.0140846
-5.5651927 -2.3921475 -2.046828
-6.4874911 -2.7885892 -2.024832
-5.9879913 -2.5503912 -2.03091
-7.5379176 -3.2105322 -1.9413091
-7.0335159 -2.9696262 -1.9986603
-6.5316954 -2.7336075 -2.0303447
-7.0017595 -2.930336 -1.9870108
-7.5669179 -3.166863 -1.9436147
-6.0263057 -2.4986429 -2.035676
-5.6120501 -2.3051031 -2.050029
-6.5670042 -2.6732635 -2.0331013
-5.2391701 -2.1135712 -2.0562251
-6.0553255 -2.4428222 -2.0374634
-7.5873342 -3.0608609 -1.9385424
-5.6317658 -2.2514062 -2.0493889
-6.5908117 -2.6348031 -2.0353065
-7.0425181 -2.8153813 -1.9854913
-5.2527094 -2.079695 -2.0562251
-7.6069417 -3.0118017 -1.9385424
-6.0771341 -2.3828268 -2.0368676
-7.1529007 -2.8046317 -2.011323
-7.6262321 -2.9626169 -1.9385424
-5.2812004 -2.0325534 -2.0596452
-5.6586046 -2.1778035 -2.0487487
-6.0973306 -2.3466542 -2.0386548
-6.6207023 -2.5480821 -2.0342038
-7.1469073 -2.7506003 -2.0047383
-5.6618776 -2.1586654 -2.0474682
-7.6774282 -2.9271207 -1.9468426
-6.6428528 -2.5061495 -2.0358577
-7.7313104 -2.8890808 -1.9556038
-6.6620736 -2.4656978 -2.0369601
-5.7017374 -2.0899267 -2.05195
-6.1557345 -2.2563357 -2.045804
-7.2155828 -2.6448147 -2.0118294
-6.689054 -2.4029346 -2.0380628
-8.7673311 -3.1495218 -1.9801511
-6.1720967 -2.1941445 -2.0440166
-7.9032269 -2.809551 -1.9874212
-8.7408619 -3.1073253 -1.9718347
-5.7336159 -2.0180001 -2.0538707
-7.9358797 -2.7931075 -1.9934157
-10.2041 -3.5914288 -2.0381544
-7.269908 -2.5330741 -2.0153749
-8.7639074 -3.0536325 -1.9726664
-6.2018991 -2.137908 -2.0469954
-7.9022336 -2.7240443 -1.9805042
-10.223362 -3.5241797 -2.0374138
-6.2161822 -2.1197944 -2.0493784
-6.7380924 -2.2977722 -2.0413704
-7.9443789 -2.7091308 -1.9888043
-8.8006315 -3.0011234 -1.9764087
-5.7717671 -1.9480236 -2.0583522
-10.217974 -3.4486587 -2.0318594
-5.783587 -1.9306726 -2.0602729
-6.7600851 -2.2566464 -2.0435755
-7.2804198 -2.4303443 -2.0092969
-8.8661861 -2.9287775 -1.9847252
-10.204573 -3.3708885 -2.0248234
-5.7883997 -1.8919418 -2.0577121
-6.2408705 -2.0398321 -2.0487826
-7.9874988 -2.6107185 -1.9911101
-7.3163009 -2.3645122 -2.0128424
-10.899098 -3.4846358 -1.8799497
-6.2714319 -1.9821899 -2.0523572
-7.3240385 -2.3148837 -2.0108166
-7.9885111 -2.5249012 -1.9851155
-10.89877 -3.4071133 -1.8760587
-6.292882 -1.9455669 -2.0553358
-6.8216643 -2.1090503 -2.0474343
-8.926384 -2.7597649 -1.9859725
-10.325613 -3.192364 -2.0363028
-8.0328512 -2.4543576 -1.9901876
-8.8812304 -2.7135713 -1.9739138
-7.3899798 -2.2325728 -2.0209465
-10.327201 -3.119931 -2.0325999
-10.90215 -3.2542174 -1.8692497
-8.0112371 -2.3912995 -1.9809653
-6.3119917 -1.8625096 -2.0535486
-8.970664 -2.6470168 -1.9880518
-10.895858 -3.1779187 -1.8647103
-5.8770847 -1.7141281 -2.0685959
-6.8712597 -2.0040922 -2.0523958
-10.400068 -3.0333152 -2.0411167
-7.4074144 -2.1324389 -2.0179076
-8.9936628 -2.5890863 -1.9892993
-10.90151 -3.1012645 -1.8621165
-5.8972054 -1.6576287 -2.0698764
-6.3483863 -1.7844497 -2.057719
-6.8979225 -1.9389174 -2.054601
-7.443018 -2.0921369 -2.0239856
-10.425435 -2.9304559 -2.0403762
-6.9039793 -1.9172387 -2.054601
-8.0837965 -2.2448745 -1.9878823
-5.911159 -1.6215465 -2.071157
-9.0537863 -2.4836304 -1.9955366
-10.910172 -2.9519627 -1.8569285
-6.9183993 -1.8719096 -2.0551522
-7.4780512 -2.0233345 -2.0280375
-8.0947495 -2.1901944 -1.9869598
-9.0795078 -2.4260554 -1.9976158
-10.441525 -2.789988 -2.0363028
-10.913239 -2.8793283 -1.8543346
-7.5224199 -1.9847012 -2.0366483
-5.9389424 -1.546979 -2.0737178
-6.3907104 -1.6646557 -2.0606976
-9.0302067 -2.3521931 -1.9834778
-6.9565825 -1.7874413 -2.0595624
-7.5182137 -1.931748 -2.0320895
-10.480499 -2.6558664 -2.0370436
-5.9556165 -1.48932 -2.074358
-6.414083 -1.6039686 -2.0630805
-8.1692877 -2.0428922 -1.99526
-10.91591 -2.6933298 -1.8472013
-8.2172327 -2.0274734 -2.0054045
-9.0807238 -2.2405264 -1.9880518
-10.435916 -2.5748987 -2.0251937
-10.915193 -2.654784 -1.8455801
-6.9884276 -1.6997194 -2.0623188
-7.582015 -1.8440913 -2.042726
-9.0519867 -2.2016165 -1.9801511
-6.4347544 -1.5436602 -2.0648677
-10.467616 -2.5111203 -2.0281563
-7.0027113 -1.6566612 -2.0634215
-8.2741938 -1.9574612 -2.0146272
-10.924797 -2.5463023 -1.8429862
-5.9898334 -1.3960832 -2.0781994
-7.6163263 -1.7751789 -2.0472848
-10.56062 -2.4245269 -2.0414872
-6.4597402 -1.4616907 -2.0666552
-7.0316939 -1.5911106 -2.0672803
-7.6427274 -1.7293735 -2.0513368
-9.1529522 -2.0711026 -1.994705
-5.9992604 -1.3376961 -2.0769191
-8.2190065 -1.8326478 -1.99526
-10.939423 -2.4011853 -1.840068
-7.0474563 -1.546905 -2.0689342
-7.6556263 -1.6803973 -2.0518432
-6.4753404 -1.4000179 -2.067251
-7.6778884 -1.6600178 -2.056402
-8.3181696 -1.7984514 -2.0164714
-9.1991816 -1.9889331 -2.0005264
-10.579127 -2.2872877 -2.0392654
-10.937328 -2.3267977 -1.8371499
-6.0287275 -1.2825464 -2.0826812
-7.0629396 -1.5025638 -2.0705879
-8.3410387 -1.747093 -2.0192382
-9.200345 -1.9270812 -1.9980316
-10.953665 -2.2584283 -1.8374741
-6.5015697 -1.3404948 -2.0714211
-7.6877837 -1.5850685 -2.0548823
-9.2063541 -1.8981676 -1.9980316
-10.554397 -2.1761072 -2.0303781
-6.0447893 -1.2045768 -2.0826812
-7.0968399 -1.4142245 -2.0749981
-8.3061829 -1.6552167 -2.006788
-9.2110653 -1.8355374 -1.9963682
-10.963594 -2.1489837 -1.8355286
-6.5274763 -1.2794564 -2.0755913
-9.2321444 -1.8096007 -1.9996947
-10.59252 -2.0762491 -2.0337107
-6.0558729 -1.1475554 -2.0826812
-6.544765 -1.2401978 -2.0785701
-7.1174083 -1.3487107 -2.0772033
-9.2644749 -1.7555681 -2.0042689
-10.976313 -2.0402846 -1.8342316
-6.0617046 -1.126754 -2.0833213
-7.1429906 -1.3058299 -2.0821648
-8.385026 -1.5328898 -2.0196993
-7.7756729 -1.3948611 -2.0680513
-9.2580843 -1.6607877 -1.9992789
-10.65351 -1.91111 -2.0392654
-10.99311 -1.9364051 -1.8339074
-6.0813847 -1.0712186 -2.0865223
-6.5677576 -1.1568918 -2.0809531
-10.638168 -1.8738831 -2.035192
-10.993306 -1.9008478 -1.8329347
-7.1589856 -1.2378572 -2.0832672
-9.3011084 -1.6082506 -2.0063481
-6.1027794 -1.0135933 -2.090364
-6.5938182 -1.0951486 -2.0857191
-7.8197598 -1.2987617 -2.0751424
-8.42416 -1.3991448 -2.0233881
-10.688937 -1.7752951 -2.0414872
-7.1802297 -1.1693743 -2.0860236
-7.8123436 -1.2723206 -2.0721033
-8.444315 -1.3480269 -2.026155
-6.1253319 -0.95701158 -2.0948455
-6.6096864 -1.0326862 -2.0875063
-7.2009273 -1.1250608 -2.0898826
-7.8414249 -1.225131 -2.0776749
-6.6313219 -0.99224263 -2.0922723
-7.2209072 -1.0572778 -2.092639
-7.8681388 -1.1520448 -2.0817268
-7.2792454 -0.78049803 -2.0992541
-6.7053466 -0.69647944 -2.1035914
-7.9402719 -0.82475024 -2.0898311
-8.6022625 -0.89351076 -2.049211
-9.3672104 -0.97296536 -2.0017738
-8.6214123 -0.83926076 -2.0524387
-10.715917 -1.0431525 -2.0285265
-6.7231278 -0.63315481 -2.1071661
-7.2944608 -0.68696046 -2.100908
-7.9902 -0.75248218 -2.1009741
-9.3955956 -0.8848362 -2.0059323
-6.7175665 -0.58889318 -2.1041873
-7.310236 -0.64084935 -2.1042156
-7.9948926 -0.7008695 -2.1009741
-8.7027416 -0.76292288 -2.0699613
-9.4257383 -0.76500064 -2.0100904
-8.7174244 -0.67995489 -2.0718057
-6.7398434 -0.5032239 -2.1089532
-7.9743371 -0.59539616 -2.0933766
-10.721005 -0.80047345 -2.025564
-7.3350158 -0.52320808 -2.1086259
-6.7500792 -0.43887448 -2.1107407
-7.3419952 -0.4773595 -2.1097283
-7.9989915 -0.52007586 -2.0984414
-8.7196531 -0.56693161 -2.0704224
-9.4719458 -0.61584395 -2.0175753
-8.7349882 -0.54037815 -2.0736501
-10.744065 -0.66466689 -2.0281563
-6.7584906 -0.39561129 -2.1125278
-8.02108 -0.44283223 -2.1030002
-10.732537 -0.59252793 -2.0251937
-7.3629074 -0.38329732 -2.1141386
-9.4947386 -0.4942759 -2.0209017
-6.7676973 -0.33099607 -2.114315
-8.7354069 -0.42723328 -2.0722671
-6.7782941 -0.30898619 -2.1172938
-7.3556266 -0.33530369 -2.1113822
-10.759328 -0.49046028 -2.0292671
-8.0492659 -0.34158805 -2.1090779
-9.4755907 -0.40211722 -2.0159118
-10.746559 -0.42035684 -2.0263047
-7.3796396 -0.26543954 -2.1174462
-8.0599566 -0.26315224 -2.111104
-10.782444 -0.35203969 -2.0325999
-9.505414 -0.28045404 -2.0213175
-6.7906103 -0.17900595 -2.1196768
-10.754972 -0.28350973 -2.0270452
-7.3920631 -0.17033246 -2.1202028
-8.0582428 -0.185683 -2.1100912
-8.7513094 -0.20165306 -2.0741112
-7.3944836 -0.14714493 -2.120754
-9.5585232 -0.19020776 -2.032129
-6.8034897 -0.11281555 -2.1232512
-6.8002453 -0.070029281 -2.1220598
-8.083169 -0.083240904 -2.116169
-8.7414923 -0.090020344 -2.0713446
-10.830854 -0.1115367 -2.0407465
-7.4073024 -0.051715098 -2.1240616
-8.7962322 -0.061412103 -2.0842559
-9.5582266 -0.066732064 -2.0317132
-10.827234 -0.075591825 -2.0400059
-8.0874147 -0.029643418 -2.1171823
-8.806119 -0.032277737 -2.0865614
-7.4151478 0.019412333 -2.1262667
-8.1029196 0.021212872 -2.1212342
-8.8392324 0.023140484 -2.0944006
-7.41679 0.067312859 -2.1268179
-9.6069708 0.087190367 -2.0421088
-8.8191233 0.10928912 -2.0897894
-10.852215 0.13448378 -2.0448198
-8.1000347 0.12583229 -2.1207275
-9.5768661 0.14877455 -2.0358715
-8.8318834 0.16495405 -2.0930171
-7.4383945 0.16230609 -2.1334331
-8.0952158 0.17663796 -2.1197147
-10.874045 0.23727213 -2.0492635
-9.64149 0.24236812 -2.0500095
-7.4390769 0.21168897 -2.1339846
-8.8512478 0.25187418 -2.0980895
-9.6768751 0.30579722 -2.0579102
-10.863349 0.34329078 -2.0477822
-8.0980606 0.2813746 -2.1212342
-8.8533802 0.30761889 -2.0990117
-10.82686 0.37618929 -2.0411167
-10.896331 0.41288063 -2.0544479
-8.1037483 0.33539703 -2.1232603
-9.6734238 0.40036258 -2.0579102
-7.4443803 0.33023438 -2.1367409
-7.4420924 0.37830153 -2.1367409
-9.6789904 0.49200904 -2.0599892
-8.9254332 0.48338351 -2.1179178
-10.864642 0.58840716 -2.0500042
-8.124361 0.46702474 -2.1303513
-9.7282476 0.55922329 -2.0712166
-7.4514718 0.45183557 -2.1405997
-9.7362051 0.59037519 -2.0732956
-10.893968 0.66057849 -2.0562994
-8.1251278 0.51830727 -2.1313641
-8.957284 0.57139099 -2.1266787
-11.735905 0.78772599 -1.9324768
-7.454154 0.50033051 -2.1422536
-10.913006 0.73249221 -2.0607429
-8.1351223 0.57171601 -2.1349096
-9.7281389 0.68366927 -2.0728798
-8.9939709 0.6620537 -2.1368234
-10.921769 0.8039605 -2.0633349
-11.790769 0.90518016 -1.9428524
-7.4585919 0.57259792 -2.14501
-8.1428356 0.62512743 -2.1379488
-9.7781353 0.75066984 -2.0845227
-8.9605341 0.71622384 -2.1299069
-10.932176 0.87381893 -2.0662975
-9.7769842 0.81412148 -2.0853546
-11.84249 1.02359 -1.9529039
-7.4584985 0.64466548 -2.1466639
-7.4544039 0.6692217 -2.1461124
-8.1494989 0.73162413 -2.1420007
-8.9434147 0.80289817 -2.1276011
-9.7988014 0.87969077 -2.091176
-10.949333 1.0176662 -2.071852
-8.9904976 0.86410087 -2.1400514
-11.928439 1.1864094 -1.9694402
-7.459115 0.74188787 -2.1494203
-8.1421003 0.80981797 -2.1420007
-10.946445 1.0887396 -2.0725927
-7.4656401 0.79125917 -2.1527278
-8.9700098 0.95070249 -2.1372845
-9.8223219 1.0410362 -2.0994925
-10.970458 1.1627235 -2.0785177
-11.990825 1.3110876 -1.9817615
-8.1453362 0.89061844 -2.1450398
-9.848443 1.1081611 -2.1065614
-8.958539 1.0365366 -2.1368234
-8.1442661 0.96826065 -2.1470659
-12.075014 1.4762067 -1.9986219
-8.9960871 1.0997987 -2.1474292
-8.1472645 1.0234582 -2.1495984
-9.8895998 1.2423303 -2.1186204
-11.037529 1.3865329 -2.095922
-9.8953485 1.2746456 -2.1206994
-12.13855 1.6023787 -2.0115917
-9.0082684 1.1891583 -2.1529627
-8.1508121 1.1295677 -2.1541569
-9.8923454 1.3709155 -2.1227784
-9.0114183 1.3081992 -2.1575739
-11.032217 1.6015612 -2.1003656
-12.255715 1.8185107 -2.0355854
-8.1472473 1.2088935 -2.1561828
-9.9008951 1.5026709 -2.1286001
-8.9982023 1.3962106 -2.1575739
-8.1429129 1.2882533 -2.1582088
-9.9279699 1.570659 -2.1365006
-8.9950151 1.4536523 -2.158957
-10.816875 1.7480766 -2.064446
-9.9391527 1.6721621 -2.1423223
-10.760783 1.810393 -2.0559289
-8.1425152 1.3976756 -2.1627672
-8.9746246 1.5405085 -2.1575739
-10.745036 1.8444026 -2.0540776
-8.1450005 1.450845 -2.1658063
-8.1439533 1.4785386 -2.1668193
-8.957509 1.62624 -2.1571128
-9.9398251 1.8045801 -2.1473122
-10.726462 1.982224 -2.0551884
-8.14184 1.532529 -2.1688454
-9.943346 1.8716244 -2.1506388
-8.949131 1.7136127 -2.158957
-8.1412687 1.586926 -2.1713779
-10.7876 2.1027586 -2.0707412
-8.943716 1.8017452 -2.1617239
-12.700316 2.6023817 -2.1299396
-9.9944201 2.047925 -2.168519
-11.007595 2.2555315 -2.1170292
-11.08127 2.3069236 -2.1325819
-8.9485264 1.8939067 -2.1672573
-9.9695044 2.1099911 -2.1660242
-11.077404 2.3444719 -2.1333225
-12.777014 2.7461488 -2.1471243
-8.9516611 1.9534144 -2.1709461
-10.053837 2.2288823 -2.1888945
-11.127304 2.4668643 -2.1473942
-12.871311 2.9408302 -2.1691728
-8.9351654 2.0710595 -2.1732519
-12.937109 3.0415189 -2.1834393
-10.005579 2.3523152 -2.1847363
-11.079665 2.6048334 -2.1444318
-8.9288044 2.1320803 -2.1750963
-11.167209 2.7036963 -2.1647985
-8.928463 2.1913874 -2.1783242
-10.01061 2.4569879 -2.1909735
-8.9258699 2.2818134 -2.1829352
-10.004555 2.5929439 -2.1967952
-11.151267 2.9275589 -2.1722045
-12.910327 3.4327586 -2.1947877
-9.9880657 2.6557512 -2.1967952
-8.9182053 2.4029765 -2.1884687
-11.158697 3.0066686 -2.1773887
-12.976759 3.5427341 -2.210027
-8.9100046 2.4625919 -2.1903131
-12.97705 3.6305809 -2.213918
-10.005685 2.799284 -2.2084382
-11.159607 3.1221161 -2.1833136
-8.9084034 2.5544431 -2.1958466
-12.893563 3.7434859 -2.205812
-10.000391 2.9034894 -2.213428
-11.157954 3.2776172 -2.1910901
-8.9002619 2.644829 -2.1999967
-9.9763241 2.9645948 -2.2121806
-9.9637012 3.067138 -2.2159231
-11.133476 3.4272311 -2.194793
-12.889044 4.0120192 -2.2178087
-11.188087 3.5619681 -2.2121975
-9.934988 3.1974273 -2.2184179
-12.814728 4.218225 -2.216512
-9.9125452 3.2974627 -2.2204971
-11.184045 3.720434 -2.2207143
-9.9008923 3.3628263 -2.2225761
-9.8933983 3.4684939 -2.2283976
-11.264333 3.9889104 -2.2514496
-9.8836861 3.536927 -2.2313085
-11.254265 4.0695429 -2.2547824
-9.867156 3.6734841 -2.2379618
-9.8508739 3.7774508 -2.2425356
-11.175901 4.2855506 -2.2551527
-9.8396988 3.8442547 -2.2454464
-11.201894 4.4193215 -2.2688539
-11.176769 4.4930315 -2.2695944
-11.167638 4.6143742 -2.2766304
-11.196177 4.7548003 -2.2918127
-11.207578 4.8429837 -2.3003299
-11.093237 4.9227962 -2.2866285
-11.010733 5.1836023 -2.2929237
-10.98852 5.2624569 -2.2955158
-10.977242 5.2995162 -2.2966266
-10.962307 5.3348365 -2.2969971
-2.0164168 -7.8648238 -1.9237868
-2.1362748 -7.808908 -1.9182533
-2.2114317 -7.7839103 -1.917331
-2.4910951 -8.5576811 -1.8944916
-2.5765166 -8.5446129 -1.8969865
-2.3583984 -7.7284427 -1.9145644
-2.4311299 -7.7058725 -1.9145644
-2.7068357 -8.4816408 -1.8924123
-2.580667 -7.6550355 -1.9141032
-2.8410194 -8.4273195 -1.8903332
-2.4282496 -6.984756 -1.9358541
-2.6495035 -7.6211834 -1.9117976
-2.921603 -8.4038658 -1.891165
-2.7735345 -7.5831428 -1.9131809
-2.5610905 -6.9309611 -1.9343345
-2.5833838 -6.9206166 -1.933828
-2.9213219 -7.5316195 -1.9141032
-3.2422171 -8.3589363 -1.9057187
-2.693464 -6.8764439 -1.9333215
-3.2774301 -8.2905235 -1.8949074
-2.9906013 -7.4960003 -1.9122587
-2.7629628 -6.8592453 -1.9358541
-2.8257182 -6.8252563 -1.933828
-3.1096218 -7.4410853 -1.9108753
-3.4412041 -8.1623621 -1.8828485
-2.8880758 -6.7906957 -1.931802
-2.9519842 -6.756825 -1.9302825
-3.2511137 -7.3782372 -1.9104142
-2.7933602 -6.2271338 -1.9570254
-3.0170898 -6.7258859 -1.9297761
-3.0795367 -6.6953945 -1.9292696
-2.9164917 -6.1810541 -1.9597816
-3.167413 -6.6585579 -1.9302825
-3.211189 -6.6397066 -1.9307891
-4.1913195 -8.6663017 -1.81375
-3.5370412 -7.2520094 -1.9117976
-4.7370396 -9.5552673 -1.7521987
-3.0373917 -6.1268415 -1.9608842
-3.2793667 -6.6149387 -1.9328151
-3.0592029 -6.1224279 -1.9625381
-3.6530259 -7.194283 -1.9117976
-3.1178329 -6.0927796 -1.9625381
-3.4111073 -6.5610638 -1.9358541
-3.2407298 -6.0414028 -1.9658457
-3.2587795 -6.0295005 -1.9652944
-3.5355093 -6.4926705 -1.9353476
-3.9030445 -7.1084261 -1.9214811
-3.1048229 -5.5304666 -1.97908
-3.9698663 -7.0713253 -1.9214811
-3.1231458 -5.5201402 -1.97908
-3.3806515 -5.9752798 -1.9686021
-3.6636591 -6.4256854 -1.9363606
-4.5937214 -7.9984155 -1.7378377
-3.1798141 -5.4965167 -1.981463
-3.4407411 -5.947546 -1.9702559
-3.7251725 -6.3902206 -1.9363606
-4.0811758 -7.0009146 -1.9200977
-3.4977267 -5.9119787 -1.9697046
-3.2554233 -5.4631915 -1.9844416
-4.1722541 -6.9492908 -1.9205587
-3.2926111 -5.4453225 -1.9856331
-3.5543163 -5.8781309 -1.9697046
-3.8282969 -6.3312402 -1.936867
-4.5459943 -7.5181689 -1.867463
-3.3106937 -5.4365826 -1.9862289
-3.3677073 -5.4104486 -1.9886118
-5.0386157 -8.0384741 -1.7874584
-3.6644528 -5.8055625 -1.9686021
-3.9522319 -6.2614889 -1.9383866
-4.3150215 -6.8362536 -1.9154866
-3.4688742 -5.3415976 -1.9874204
-3.7433159 -5.7642007 -1.9708073
-5.2130647 -8.0274153 -1.8033816
-3.4865673 -5.3300657 -1.9874204
-3.7814617 -5.7392483 -1.9708073
-4.0781245 -6.1895027 -1.9404125
-4.4743872 -6.7447071 -1.9177922
-3.836458 -5.7049494 -1.9713585
-4.1395173 -6.1556091 -1.9419321
-3.8596678 -5.6985626 -1.9735636
-3.611083 -5.258091 -1.9903991
-4.6185389 -6.6799774 -1.9242479
-4.2377772 -6.0860229 -1.9414256
-3.6591988 -5.2200584 -1.9892077
-4.6515255 -6.6356697 -1.9200977
-3.9726608 -5.6274366 -1.9752175
-3.4453547 -4.8480864 -2.0096943
-4.3004847 -6.0513716 -1.9434515
-3.4547968 -4.8273897 -2.0058529
-3.7122648 -5.18715 -1.9903991
-4.0253735 -5.5874829 -1.9746661
-4.3651915 -6.0192094 -1.9464906
-3.503212 -4.7970643 -2.0071335
-3.7778163 -5.1372356 -1.9898034
-4.4261141 -5.9793682 -1.9475037
-4.8213592 -6.5133166 -1.9200977
-3.551362 -4.7662544 -2.0084138
-3.5594971 -4.7459788 -2.0045724
-3.8329391 -5.1105666 -1.9933779
-4.1376643 -5.5168657 -1.9774225
