# .PCD v0.7 - Point Cloud Data file format
VERSION 0.7
FIELDS x y z
SIZE 4 4 4
TYPE F F F
COUNT 1 1 1
WIDTH 1509
HEIGHT 1
VIEWPOINT 0 0 0 1 0 0 0
POINTS 1509
DATA ascii
4.8289042 -5.158474 -2.204869
5.2422814 -5.6000643 -2.1995862
5.7054887 -6.0948853 -2.18556
6.2881384 -6.7173004 -2.1801686
6.957408 -7.4322472 -2.1639452
7.7568083 -8.2862062 -2.1385069
8.6834555 -9.3347044 -2.0945973
10.030806 -10.783105 -2.0697825
11.650586 -12.524366 -2.0003474
3.0663249 -3.2962956 -2.2613122
13.827672 -14.864731 -1.8940668
3.2246287 -3.4664721 -2.2409799
16.428986 -17.66114 -1.6867114
3.4122534 -3.6681683 -2.2305439
3.626343 -3.8983145 -2.2238905
3.8955193 -4.1876788 -2.2333577
4.1704273 -4.4832044 -2.2286031
4.4600601 -4.7945595 -2.2126486
4.8152747 -5.1764145 -2.2060604
5.2298999 -5.6221361 -2.2017913
5.6784058 -6.1042795 -2.1825209
6.2630277 -6.7327476 -2.1787853
6.9353576 -7.4555011 -2.164361
7.7213678 -8.3004608 -2.1359146
8.6433697 -9.3503437 -2.0920033
10.008979 -10.827652 -2.0722876
11.599047 -12.547777 -1.9982567
3.0656595 -3.3164117 -2.2684939
13.752518 -14.877389 -1.8901653
3.2174039 -3.4805677 -2.243547
16.381548 -17.721457 -1.6875486
3.3932712 -3.67082 -2.2256629
3.6140783 -3.9096875 -2.2238905
3.8848729 -4.2026315 -2.2348125
4.1550469 -4.494904 -2.2279193
4.4385448 -4.8015904 -2.2094474
4.7925091 -5.1845069 -2.2030818
5.2069917 -5.6328917 -2.1995862
5.6644545 -6.1277723 -2.1845469
6.2418451 -6.7523899 -2.1787853
6.9132285 -7.4786882 -2.1647768
7.692585 -8.3217907 -2.135174
8.6179562 -9.3818121 -2.0929761
9.9655342 -10.848833 -2.0703392
11.552849 -12.576839 -1.9970951
3.0419259 -3.3115482 -2.2586191
13.701669 -14.916121 -1.8896079
3.20523 -3.4893267 -2.2426913
16.309595 -17.755201 -1.6858745
3.3767781 -3.67608 -2.222409
3.6017776 -3.9210224 -2.2238905
3.8729112 -4.216188 -2.2355402
4.1472616 -4.5148554 -2.2313395
4.4247198 -4.816906 -2.2100875
4.7749062 -5.1981316 -2.202486
5.1853676 -5.6449742 -2.1979325
5.6438665 -6.1441126 -2.1840405
6.2140183 -6.7648001 -2.1764796
6.8923454 -7.5032511 -2.1656084
7.6597548 -8.3386793 -2.1333225
8.5831175 -9.4030094 -2.0916791
9.9340734 -10.883014 -2.0708959
11.466409 -12.561723 -1.9889647
3.0351222 -3.3250482 -2.2613122
13.621179 -14.922324 -1.8849634
3.1930335 -3.4980438 -2.2418356
16.259115 -17.812246 -1.6864325
3.3701398 -3.6920681 -2.2256629
3.5919297 -3.9350443 -2.2254322
3.8533664 -4.2214541 -2.2319026
4.1305237 -4.5250864 -2.2299714
4.408288 -4.8293839 -2.2094474
4.7611265 -5.2159266 -2.2036774
5.1676078 -5.6612368 -2.1979325
5.6232324 -6.1603842 -2.1835341
6.1992955 -6.7914753 -2.1787853
6.8621449 -7.5176425 -2.1635292
7.6401458 -8.3699608 -2.135174
8.5439358 -9.4226484 -2.0897336
9.8872871 -10.904159 -2.0686691
11.414016 -12.587907 -1.9871063
3.0204778 -3.3311229 -2.2586191
13.574294 -14.970362 -1.885335
3.1826303 -3.5099523 -2.2426913
16.220062 -17.888237 -1.6885252
3.3541958 -3.6991627 -2.2232225
3.5813401 -3.9496679 -2.226974
3.8393462 -4.2342091 -2.2319026
4.1192822 -4.5429358 -2.2320235
4.390976 -4.8425722 -2.208807
4.7386737 -5.2260294 -2.2012944
5.1488061 -5.6783423 -2.1979325
5.594975 -6.1703978 -2.180495
6.1715107 -6.8062286 -2.1769407
6.8358641 -7.538908 -2.1631134
7.6110277 -8.3937941 -2.1348038
8.5086803 -9.4465294 -2.0887609
9.8391438 -10.923641 -2.066164
11.369551 -12.622733 -1.9866415
3.0034344 -3.334481 -2.2541306
13.507252 -14.996057 -1.8829197
3.1649244 -3.5137708 -2.2384131
16.156649 -17.937477 -1.6881067
3.3382423 -3.7061923 -2.220782
3.5595775 -3.9519236 -2.2215781
3.8277783 -4.2496862 -2.2333577
4.0941324 -4.5453987 -2.2265511
4.3736258 -4.8556986 -2.2081668
4.7238731 -5.2445512 -2.202486
5.1325212 -5.6982412 -2.1990349
5.5783672 -6.1932297 -2.1820145
6.1541171 -6.8324404 -2.1787853
6.8082085 -7.5586276 -2.1622818
7.5989361 -8.436511 -2.1392474
8.4829092 -9.4776258 -2.0897336
9.7981739 -10.947119 -2.0647724
11.307318 -12.633227 -1.9826926
3.0000956 -3.3518903 -2.259517
13.433512 -15.008741 -1.879204
3.1562812 -3.5263906 -2.2401242
16.094894 -17.982201 -1.6875486
3.3278015 -3.7180235 -2.2215958
21.141151 -23.620188 -1.4782786
3.5532987 -3.9699626 -2.2254322
3.8181362 -4.2658553 -2.2355402
4.084846 -4.5638399 -2.2292871
4.3520312 -4.8623557 -2.2049658
4.7048273 -5.2565207 -2.2012944
5.1094656 -5.7086077 -2.1968298
5.5550122 -6.2063994 -2.180495
6.126133 -6.8444905 -2.1764796
6.7883425 -7.5843515 -2.1635292
7.5579762 -8.4442329 -2.135174
8.4530926 -9.5042276 -2.0897336
9.7584696 -10.971928 -2.063659
11.262293 -12.662749 -1.9817632
2.9895504 -3.3612986 -2.259517
13.379677 -15.043429 -1.8782752
3.1487913 -3.5403409 -2.2426913
16.044952 -18.040129 -1.6882463
3.3258183 -3.7393813 -2.2281034
21.049582 -23.667082 -1.4770675
3.5359032 -3.9755898 -2.2223487
3.8022392 -4.2750444 -2.2340851
4.0679903 -4.5738416 -2.2279193
4.3442893 -4.8844981 -2.208807
4.6857524 -5.2684221 -2.200103
5.0915065 -5.7246313 -2.1968298
5.5393438 -6.228157 -2.1820145
6.1046 -6.8637018 -2.1764796
6.7631822 -7.6041784 -2.1631134
7.524879 -8.4605923 -2.1333225
8.4293699 -9.5410814 -2.0916791
9.719409 -11.001258 -2.0631022
11.213663 -12.692583 -1.9806018
2.9783878 -3.3711939 -2.259517
13.315216 -15.0713 -1.8762316
3.1370339 -3.5507631 -2.2426913
15.995609 -18.105198 -1.6893623
3.3049321 -3.7408047 -2.222409
20.855906 -23.606497 -1.468962
3.5300317 -3.9955914 -2.226974
3.7868087 -4.2862339 -2.2333577
4.050312 -4.5844893 -2.2265511
4.3255591 -4.8960376 -2.2075267
4.6695209 -5.2853627 -2.2006989
5.0712228 -5.7400432 -2.1962786
5.5173798 -6.2450418 -2.1815078
6.07794 -6.8795319 -2.1750963
6.7379293 -7.626564 -2.1631134
7.4967818 -8.4854984 -2.1333225
8.3989859 -9.5704651 -2.0920033
9.6737289 -11.023008 -2.0611537
11.155788 -12.711783 -1.9778141
2.9695497 -3.3837385 -2.2613122
13.253342 -15.101901 -1.8745594
3.1216645 -3.5570705 -2.2401242
15.96575 -18.192633 -1.6925712
3.2961242 -3.7558634 -2.2248495
20.715572 -23.604954 -1.4645832
3.5082412 -3.9975662 -2.2215781
3.7762606 -4.3029685 -2.2355402
4.0301285 -4.5922456 -2.223815
4.311799 -4.9132032 -2.208807
4.6494489 -5.2979479 -2.1995072
5.0508914 -5.7553835 -2.1957273
5.4902582 -6.2560329 -2.1789753
6.0589442 -6.904038 -2.1764796
6.7074394 -7.6429849 -2.1614501
7.4686012 -8.5103121 -2.1333225
8.3610945 -9.5878801 -2.0900578
9.6442585 -11.059317 -2.0622673
11.115798 -12.746769 -1.9778141
2.9518569 -3.3849695 -2.2559259
13.195362 -15.131458 -1.8730732
3.1104743 -3.5668602 -2.2401242
15.883601 -18.21413 -1.6899204
3.2879109 -3.7703314 -2.2272899
20.621616 -23.647333 -1.4631855
3.4968781 -4.0099592 -2.2223487
3.7529278 -4.3035779 -2.2297201
4.0181522 -4.6077175 -2.225183
4.2888703 -4.9181571 -2.2049658
4.6365461 -5.3168459 -2.2012944
5.0315218 -5.7697744 -2.1951759
5.4731207 -6.2761674 -2.1799886
6.0321078 -6.917172 -2.1746352
6.6885381 -7.6699171 -2.1631134
7.4366617 -8.5278101 -2.1318414
8.3257627 -9.6081343 -2.0887609
9.6029816 -11.082077 -2.0608754
11.090007 -12.798141 -1.9803696
2.9423785 -3.395577 -2.2568238
13.145151 -15.169827 -1.8727016
3.1004374 -3.577981 -2.2409799
15.830221 -18.268463 -1.6903389
3.2760499 -3.780642 -2.2272899
20.544607 -23.708981 -1.4629992
3.4878888 -4.0251093 -2.2246614
3.7442696 -4.3209791 -2.2326303
4.0048871 -4.6217384 -2.225867
4.2733984 -4.9316068 -2.2049658
4.6135683 -5.3241711 -2.1983156
5.0133705 -5.785553 -2.1951759
5.4521093 -6.2918682 -2.1794817
6.0103474 -6.9360886 -2.1746352
6.6631284 -7.689414 -2.1626976
7.4021115 -8.5422182 -2.1296196
8.2929611 -9.6312513 -2.0881126
9.5539026 -11.09568 -2.0578136
11.03808 -12.819369 -1.9782789
2.9398596 -3.4142845 -2.2631078
13.080537 -15.19143 -1.8702863
3.0915403 -3.5904427 -2.2426913
15.768846 -18.31357 -1.6899204
3.2677329 -3.7950687 -2.2297304
20.446558 -23.746155 -1.4613222
3.4740222 -4.0346484 -2.2238905
3.7367539 -4.3397789 -2.2362676
3.9842162 -4.6271758 -2.2224469
4.257884 -4.9450073 -2.2049658
4.5980654 -5.340086 -2.1989114
4.9964247 -5.8027306 -2.1957273
5.4272661 -6.3031006 -2.1774559
5.9821782 -6.9475622 -2.1723297
6.6363859 -7.7073436 -2.1618659
7.385498 -8.5773449 -2.1325819
8.2523985 -9.6452599 -2.0855184
9.5035477 -11.107582 -2.0544736
10.992587 -12.847946 -1.9773495
2.9291189 -3.4235034 -2.2631078
13.035336 -15.235476 -1.8706579
3.0743694 -3.5932698 -2.2384131
15.713828 -18.366051 -1.6901994
3.2451041 -3.7928214 -2.222409
20.371855 -23.810272 -1.4613222
3.4625297 -4.0469446 -2.2246614
3.7122014 -4.338757 -2.2297201
3.9672163 -4.6368136 -2.2210789
4.2386327 -4.9540405 -2.2030451
4.5763016 -5.348702 -2.1965287
4.9744205 -5.8140168 -2.1940734
5.4099531 -6.3230596 -2.1784689
5.9615879 -6.9678006 -2.1727908
6.6108675 -7.7266679 -2.1614501
7.3470159 -8.5870647 -2.1292493
8.2216473 -9.6740761 -2.0858426
9.4576845 -11.128471 -2.052525
10.930626 -12.861622 -1.9738652
2.9200647 -3.435921 -2.2649031
12.969268 -15.260408 -1.8684285
3.0682902 -3.6103318 -2.2426913
15.636042 -18.398293 -1.6883856
3.2289593 -3.7993848 -2.2199686
20.25268 -23.830503 -1.458434
3.4455051 -4.0541854 -2.2223487
3.6990001 -4.3524628 -2.2304478
3.9542527 -4.6528082 -2.2224469
4.2295437 -4.9767313 -2.2068865
4.5610123 -5.3667574 -2.1977201
4.9576035 -5.8334098 -2.1951759
5.3939681 -6.3468623 -2.180495
5.9371886 -6.9860477 -2.1723297
6.5852094 -7.7485471 -2.1614501
7.3197732 -8.6128788 -2.1296196
8.1895218 -9.7012882 -2.0858426
9.4168959 -11.155232 -2.0516901
10.887916 -12.897799 -1.9738652
2.8982792 -3.4332948 -2.2568238
12.916023 -15.300291 -1.8680569
3.0539691 -3.6177247 -2.2409799
15.581381 -18.457666 -1.6890832
3.2151639 -3.8086755 -2.2191553
20.133595 -23.850208 -1.4555459
3.4356136 -4.0698199 -2.2246614
3.6917567 -4.3732462 -2.2348125
3.9388018 -4.6658955 -2.2224469
4.208128 -4.9849386 -2.2043254
4.5407276 -5.3789353 -2.1965287
4.9357519 -5.84688 -2.1940734
5.3678989 -6.3588004 -2.1784689
5.9165001 -7.0086722 -2.1732519
6.5544305 -7.7643628 -2.1597869
7.2822971 -8.6265917 -2.1270275
8.1539297 -9.7209206 -2.0845459
9.3805304 -11.183245 -2.0514116
10.832022 -12.913677 -1.9710776
2.8955185 -3.4519682 -2.2631078
12.848696 -15.317908 -1.8652703
3.0437498 -3.6286857 -2.2418356
15.532291 -18.517227 -1.6900598
3.2137501 -3.8313563 -2.2264767
20.072689 -23.93018 -1.4565707
3.4228106 -4.0805931 -2.2246614
3.668421 -4.373404 -2.2289927
3.9229157 -4.6768064 -2.2217629
4.1960993 -5.0024891 -2.2062461
4.525033 -5.3946366 -2.1971242
4.9136519 -5.8579383 -2.1924198
5.3478951 -6.3756328 -2.1784689
5.8906999 -7.0227518 -2.1718683
6.5262332 -7.7804193 -2.1585395
7.2564216 -8.6509323 -2.1273978
8.1246138 -9.748004 -2.0848701
9.3364754 -11.20201 -2.0494633
10.774865 -12.927807 -1.9680575
2.8823709 -3.4583015 -2.2613122
12.795409 -15.352077 -1.864527
3.031178 -3.6368418 -2.2409799
15.482983 -18.57666 -1.6910363
3.1970184 -3.835819 -2.2232225
20.010202 -24.008469 -1.4575024
3.4052479 -4.0856552 -2.2215781
3.658242 -4.3892002 -2.2311752
3.9082038 -4.6891074 -2.2217629
4.1658053 -4.9981809 -2.1985636
4.5092854 -5.4102921 -2.1977201
4.8915315 -5.8689156 -2.1907659
5.3290782 -6.3938885 -2.1789753
5.867362 -7.0397282 -2.1714072
6.5005054 -7.7993808 -2.1581235
7.2216582 -8.664628 -2.125176
8.0901737 -9.7689209 -2.0838974
9.2961836 -11.225183 -2.0483499
10.740533 -12.969242 -1.969219
2.8714921 -3.4673398 -2.2613122
12.739495 -15.382998 -1.8634124
3.0197375 -3.6463468 -2.2409799
15.41182 -18.609842 -1.6896414
3.184952 -3.845844 -2.2232225
19.915564 -24.048134 -1.4561049
3.397104 -4.1020184 -2.2246614
3.6444349 -4.4006715 -2.2311752
3.8910556 -4.6984673 -2.2203946
4.1633763 -5.0272956 -2.205606
4.4910488 -5.4229617 -2.1971242
4.8804274 -5.8931384 -2.1940734
5.3015604 -6.4016581 -2.1759362
5.8489418 -7.0626235 -2.1727908
6.4797144 -7.8242846 -2.1593711
7.1868801 -8.6781902 -2.1229541
8.0510101 -9.7910032 -2.0826004
9.2544289 -11.254505 -2.0477931
10.68258 -12.99131 -1.9668959
2.860507 -3.4787226 -2.2622101
12.679399 -15.419683 -1.8624835
3.0035465 -3.6526761 -2.2384131
15.353103 -18.671232 -1.6903389
3.1680269 -3.8527043 -2.220782
19.830231 -24.115961 -1.4560118
3.3792484 -4.1095753 -2.2223487
3.6255019 -4.409049 -2.2289927
3.8758254 -4.7134728 -2.2210789
4.1409893 -5.035944 -2.2030451
4.4696665 -5.4356556 -2.1959326
4.8647113 -5.9160776 -2.1962786
5.2840981 -6.4261026 -2.1779625
5.8180728 -7.0754805 -2.170485
6.443666 -7.8362775 -2.1564603
7.1565442 -8.7032242 -2.1229541
8.0169287 -9.8087349 -2.0813034
9.2184887 -11.278848 -2.0472364
10.626388 -13.001415 -1.9636438
2.8479106 -3.4844267 -2.2604146
12.628551 -15.451068 -1.8617404
2.9961278 -3.6657708 -2.2409799
15.305212 -18.725971 -1.6911759
3.1612072 -3.8677461 -2.2240362
19.646069 -24.03702 -1.4477198
3.357697 -4.1081519 -2.2161822
3.6194782 -4.428442 -2.2333577
3.8606336 -4.7234964 -2.2203946
4.1224318 -5.043807 -2.2011244
4.452311 -5.4474149 -2.1953371
4.841053 -5.9230423 -2.1935222
5.2686815 -6.4462466 -2.1794817
5.7970538 -7.0927114 -2.170485
6.4191494 -7.853847 -2.1560445
7.1219835 -8.7137671 -2.120362
7.9768949 -9.8260736 -2.0793579
9.1735458 -11.300129 -2.0455663
10.593232 -13.048922 -1.9655023
2.8295815 -3.4855263 -2.2550282
12.55716 -15.468122 -1.8587677
2.9839551 -3.6756864 -2.2409799
15.232971 -18.764231 -1.6900598
3.1391513 -3.8668594 -2.2175283
19.636763 -24.188896 -1.4529371
3.3463817 -4.1221294 -2.2177236
3.6000762 -4.4346347 -2.2304478
3.8449488 -4.7362728 -2.2203946
4.1068773 -5.0589209 -2.2017646
4.4318151 -5.4591846 -2.1941454
4.8250203 -5.943541 -2.1951759
5.2436175 -6.4591765 -2.1779625
5.7685947 -7.1058526 -2.1686406
6.3893704 -7.8705344 -2.1547968
7.0967641 -8.7419138 -2.1214728
7.9410286 -9.8449411 -2.0780609
9.1280527 -11.316562 -2.0433397
10.557172 -13.088321 -1.9664314
2.8253496 -3.5027452 -2.2604146
12.501001 -15.498197 -1.8576531
2.9723926 -3.6850426 -2.2409799
15.172692 -18.810442 -1.6899204
3.1373112 -3.8895016 -2.2248495
19.563181 -24.25358 -1.4531236
3.3380492 -4.1383677 -2.2208071
3.5861263 -4.4459229 -2.2304478
3.8300498 -4.7483287 -2.2203946
4.0992908 -5.0821218 -2.2062461
4.4170399 -5.4760532 -2.1953371
4.8002887 -5.9511886 -2.1924198
5.2184396 -6.469594 -2.1759362
5.7572393 -7.1375742 -2.1727908
6.3621554 -7.8875227 -2.1539652
7.0667973 -8.7611065 -2.1207323
7.9088278 -9.8682995 -2.0777369
9.0887403 -11.340545 -2.0425045
10.503581 -13.105923 -1.9641086
2.8098612 -3.5060253 -2.2568238
12.431082 -15.510976 -1.8544947
2.9596708 -3.6929514 -2.2401242
15.087323 -18.825321 -1.6869906
3.1182213 -3.890784 -2.2199686
19.415678 -24.226059 -1.447813
3.3227241 -4.1459541 -2.2192655
3.5744717 -4.4600739 -2.2319026
3.8115885 -4.7559385 -2.2183428
4.0655308 -5.0727968 -2.1966429
4.4010091 -5.4913921 -2.1959326
4.7791648 -5.9632387 -2.1913171
5.2053499 -6.4950147 -2.1789753
5.7262688 -7.1449947 -2.1695631
6.3446865 -7.9166303 -2.1564603
7.0380106 -8.7817307 -2.120362
7.8681884 -9.8881254 -2.0761156
9.0318346 -11.350505 -2.0386078
10.462716 -13.148726 -1.9650377
2.8053954 -3.5256021 -2.2631078
12.366943 -15.54181 -1.8530086
2.9433849 -3.6990168 -2.2375572
15.00164 -18.852892 -1.6847583
3.1023455 -3.8987858 -2.2183418
19.43424 -24.423439 -1.4555459
3.3059332 -4.1546392 -2.2177236
3.5542412 -4.4666929 -2.2289927
3.7961338 -4.7706847 -2.2190268
4.0584164 -5.1003013 -2.2024047
4.379436 -5.5037336 -2.1947412
4.7631078 -5.9859023 -2.1935222
5.1850557 -6.5161738 -2.1799886
5.7025046 -7.1664634 -2.1700242
6.3121409 -7.9326062 -2.1547968
7.0036416 -8.801631 -2.119251
7.8383083 -9.9143429 -2.0764396
9.0010443 -11.385037 -2.0397213
10.390555 -13.14257 -1.9592299
2.7920883 -3.5315938 -2.2613122
12.31929 -15.582146 -1.8531942
2.9306285 -3.7068272 -2.2367015
14.941101 -18.898363 -1.6846188
3.0957472 -3.915679 -2.222409
19.299183 -24.410713 -1.4511671
3.2917202 -4.1635566 -2.2169528
3.5355697 -4.4719915 -2.2260828
3.7811275 -4.7825871 -2.2190268
4.0435486 -5.1145124 -2.2030451
4.3609395 -5.5159669 -2.1941454
4.7430868 -5.9993286 -2.192971
5.1609588 -6.5278769 -2.1784689
5.6775479 -7.1812887 -2.1691017
6.2823358 -7.946259 -2.1531339
6.975956 -8.8235893 -2.119251
7.8046856 -9.9358149 -2.0757914
8.9615631 -11.408586 -2.0388861
10.340627 -13.164214 -1.9576039
2.77546 -3.5333207 -2.2568238
12.271509 -15.622338 -1.8533801
2.9178522 -3.7145941 -2.235846
14.870565 -18.931087 -1.6833633
3.0811734 -3.9225111 -2.220782
19.198952 -24.441372 -1.449397
3.2797639 -4.1753283 -2.2177236
3.5203524 -4.4816117 -2.2253554
3.7684059 -4.7973976 -2.2203946
4.0274611 -5.1271901 -2.2030451
4.3424101 -5.5281382 -2.1935496
4.7242165 -6.0141997 -2.192971
5.1368403 -6.539494 -2.1769495
5.6525555 -7.1960292 -2.1681795
6.2609658 -7.9705706 -2.154381
6.9469876 -8.843915 -2.1188807
7.7704806 -9.9600849 -2.0754671
8.9175901 -11.430433 -2.0374944
10.292028 -13.192167 -1.9566748
2.7648273 -3.5439141 -2.2577214
12.197586 -15.634684 -1.8500359
2.911078 -3.7313759 -2.2401242
14.828568 -19.007036 -1.6857349
3.0681489 -3.9327073 -2.220782
19.104277 -24.487576 -1.448372
3.259089 -4.1774511 -2.2130985
3.5054717 -4.4932609 -2.2253554
3.7547886 -4.8128319 -2.2217629
4.0011125 -5.1285663 -2.1979232
4.3217053 -5.5394974 -2.1923583
4.7054291 -6.0313482 -2.1935222
5.1151266 -6.5564923 -2.1769495
5.6310558 -7.2178025 -2.1691017
6.2296872 -7.9851193 -2.1527178
6.9164138 -8.8653555 -2.1185105
7.7294788 -9.9719687 -2.0728731
8.8743572 -11.448999 -2.0358243
10.239581 -13.210305 -1.9545841
2.7493007 -3.5469322 -2.2541306
12.148409 -15.672925 -1.8500359
2.8926964 -3.7319305 -2.2349904
14.748006 -19.026722 -1.6833633
3.0568986 -3.9437711 -2.2215958
19.007671 -24.522207 -1.4468814
3.2516022 -4.1949625 -2.2169528
3.4936209 -4.5071959 -2.2268102
3.7338936 -4.8171768 -2.2183428
3.9861422 -5.1426082 -2.1985636
4.3054514 -5.5545564 -2.1929541
4.6888137 -6.04914 -2.1946247
5.0956893 -6.574059 -2.1774559
5.6083527 -7.2354574 -2.1691017
6.2081661 -8.0092897 -2.1539652
6.8897319 -8.8885927 -2.1188807
7.6999793 -10.002238 -2.0738459
8.8315086 -11.472089 -2.0347109
10.19814 -13.247337 -1.9550487
2.742974 -3.5631108 -2.2586191
12.083006 -15.695769 -1.8479923
2.8758936 -3.7357726 -2.2315676
14.687262 -19.078686 -1.6836423
3.0393453 -3.9480956 -2.2183418
18.896997 -24.547112 -1.4446454
3.237673 -4.2057223 -2.2169528
3.4741094 -4.5128522 -2.2239006
3.7156055 -4.8265543 -2.2169745
3.9748454 -5.1633058 -2.2017646
4.2823491 -5.5627518 -2.1905711
4.6652098 -6.0600858 -2.192971
5.07268 -6.5893879 -2.1769495
5.5807662 -7.2493896 -2.1677184
6.1791854 -8.0267334 -2.1531339
6.8554225 -8.9051619 -2.1173995
7.663722 -10.020108 -2.0725489
8.7882042 -11.490338 -2.0330408
10.144403 -13.263532 -1.9527256
2.7285094 -3.5674517 -2.2559259
12.028797 -15.727324 -1.8472493
2.8718307 -3.7548406 -2.2375572
14.616343 -19.11047 -1.6823866
3.0291467 -3.9605269 -2.2199686
18.808863 -24.592077 -1.4438069
3.2143538 -4.2026801 -2.2100153
3.4565189 -4.5193043 -2.2217181
3.7015655 -4.8396959 -2.2176585
3.9482446 -5.1622224 -2.1960025
4.2671719 -5.5792108 -2.1917624
4.6484842 -6.0777664 -2.1940734
5.0484266 -6.6006804 -2.1754298
5.5650578 -7.2761612 -2.170485
6.147995 -8.0383368 -2.1510546
6.8298001 -8.9297771 -2.1181402
7.632206 -10.044135 -2.0725489
8.7508659 -11.516314 -2.0327625
10.099081 -13.290592 -1.9520289
2.724858 -3.5859673 -2.2622101
11.98174 -15.768209 -1.8476208
2.8567395 -3.7595263 -2.2349904
14.546578 -19.143587 -1.6812705
3.0200059 -3.9743881 -2.222409
18.700087 -24.609688 -1.4413846
3.211184 -4.2259822 -2.2169528
3.4366689 -4.5227246 -2.2180808
3.6863432 -4.8513012 -2.2176585
3.9343009 -5.1776185 -2.197283
4.247313 -5.5895491 -2.1905711
4.6212254 -6.081625 -2.1902146
5.0288363 -6.6180491 -2.1759362
5.5315757 -7.2796636 -2.1663351
6.1238956 -8.0591688 -2.1514704
6.8017135 -8.95119 -2.1181402
7.6000452 -10.070964 -2.0728731
8.7066631 -11.537364 -2.0313706
10.054953 -13.324008 -1.9520289
2.7129517 -3.5949833 -2.2622101
11.923388 -15.799906 -1.8466918
2.8420792 -3.7660928 -2.233279
14.470998 -19.175793 -1.6798754
3.0068099 -3.9843807 -2.222409
18.638834 -24.698673 -1.4429684
3.1938176 -4.2321882 -2.2146404
3.4216521 -4.5340958 -2.2180808
3.6668394 -4.8589983 -2.2156065
3.9273818 -5.204248 -2.2030451
4.224154 -5.5975065 -2.1881881
4.6068234 -6.1045885 -2.192971
5.0033665 -6.6300554 -2.174417
5.5085769 -7.2995195 -2.1667962
6.0983152 -8.0809927 -2.1518862
6.7731767 -8.9752645 -2.1185105
7.5624499 -10.086896 -2.0712519
8.6608706 -11.551984 -2.029144
10.035683 -13.385727 -1.9564424
2.7005718 -3.6020584 -2.2613122
11.861745 -15.821353 -1.844834
2.8334866 -3.7793419 -2.235846
14.404699 -19.213179 -1.6791778
2.9920855 -3.9908831 -2.220782
18.603094 -24.813051 -1.4462292
3.180506 -4.2422009 -2.2146404
3.4062729 -4.5433321 -2.2173531
3.6526837 -4.8719978 -2.2162905
3.9030564 -5.2059484 -2.1985636
4.2088385 -5.6138043 -2.1893795
4.5818558 -6.11134 -2.1902146
4.9848337 -6.6488371 -2.1754298
5.4856176 -7.3167892 -2.1667962
6.0764189 -8.1048079 -2.1531339
6.7425885 -8.9933538 -2.1177697
7.5313168 -10.115085 -2.0719004
8.6225147 -11.580641 -2.029144
9.977006 -13.399816 -1.953655
2.6886122 -3.6109941 -2.2613122
11.797323 -15.844629 -1.8429761
2.8187792 -3.7858174 -2.2341347
14.332567 -19.24964 -1.6782012
2.9842908 -4.008111 -2.2248495
18.512358 -24.86339 -1.445577
3.1631143 -4.2482839 -2.2123277
3.3934135 -4.5575919 -2.2188082
3.6342628 -4.8810687 -2.2149224
3.8869033 -5.2203827 -2.1992037
4.1901994 -5.6277308 -2.1893795
4.5604167 -6.124958 -2.1896632
4.9616027 -6.6637797 -2.1749234
5.4648108 -7.339623 -2.1681795
6.0448356 -8.1186361 -2.1514704
6.7127285 -9.0156631 -2.1177697
7.4971547 -10.135521 -2.0712519
8.5813799 -11.601301 -2.0280306
9.9277706 -13.421509 -1.952261
2.6751289 -3.616549 -2.259517
11.742751 -15.875209 -1.8422329
2.8047218 -3.7917476 -2.2324233
14.294564 -19.325047 -1.6808519
2.9640784 -4.007184 -2.2191553
18.434155 -24.921423 -1.445577
3.1519475 -4.2611675 -2.2138696
3.3757551 -4.5637364 -2.2166257
3.6155577 -4.887929 -2.2128704
3.8603427 -5.2188578 -2.1934416
4.1713638 -5.6393318 -2.1887839
4.5480123 -6.1485291 -2.192971
4.937192 -6.6746674 -2.173404
5.4417257 -7.3567548 -2.1681795
6.018137 -8.136014 -2.1510546
6.6855407 -9.0382872 -2.1181402
7.4594326 -10.151073 -2.0696306
8.5401993 -11.62182 -2.0269172
9.8843803 -13.451033 -1.9520289
2.6679873 -3.6306963 -2.2631078
11.672772 -15.884743 -1.8390746
2.8035004 -3.8151073 -2.2409799
14.216063 -19.345745 -1.6787593
2.9558024 -4.0223656 -2.222409
18.351038 -24.972775 -1.4452044
3.1418235 -4.2755103 -2.2161822
3.3614011 -4.5743194 -2.2166257
3.6012967 -4.9007783 -2.2135544
3.8450499 -5.2324862 -2.1940818
4.1502347 -5.6477938 -2.1869965
4.527535 -6.1612377 -2.1924198
4.9242182 -6.7010589 -2.1769495
5.4162822 -7.3706779 -2.1672573
5.9879131 -8.1485748 -2.1493912
6.6512938 -9.0513268 -2.1162887
7.4280558 -10.178941 -2.0702791
8.5062828 -11.656476 -2.0280306
9.832695 -13.474108 -1.950635
2.6548793 -3.6380801 -2.2622101
11.634118 -15.942665 -1.8413041
2.7812431 -3.8112407 -2.233279
14.16359 -19.408895 -1.6801543
2.9424477 -4.0321455 -2.222409
18.253992 -25.014126 -1.4440864
3.1254523 -4.2829237 -2.2146404
3.3418207 -4.579421 -2.2137158
3.8343787 -5.2543917 -2.1979232
4.1348596 -5.666152 -2.1887839
4.5104785 -6.1808763 -2.1940734
4.8996882 -6.7142248 -2.1759362
5.3895164 -7.3854547 -2.1663351
5.9597054 -8.1668062 -2.1489754
6.6247177 -9.0780973 -2.1173995
7.3960414 -10.202227 -2.0702791
8.4684591 -11.681539 -2.0277522
9.7868185 -13.500106 -1.9499379
2.6444862 -3.6478496 -2.2631078
11.57112 -15.961402 -1.8392605
2.7681952 -3.818496 -2.2324233
14.100205 -19.450066 -1.6798754
2.9308381 -4.0428486 -2.2232225
18.158903 -25.048704 -1.442782
3.1141484 -4.2957101 -2.2161822
3.3296044 -4.5929136 -2.2151706
3.5739865 -4.9300184 -2.2162905
3.8145165 -5.2618098 -2.1960025
4.112556 -5.6729302 -2.1864007
4.492167 -6.1965723 -2.1946247
4.8751645 -6.7248855 -2.174417
5.3662882 -7.4023499 -2.1663351
5.9397612 -8.193408 -2.1510546
6.5950127 -9.0972738 -2.1170292
7.3575568 -10.220291 -2.0689824
8.4296751 -11.709557 -2.0277522
9.7373552 -13.526039 -1.9490088
2.6281977 -3.6507969 -2.259517
11.500673 -15.975443 -1.8364737
2.7597415 -3.833523 -2.235846
14.040291 -19.503195 -1.6804335
2.9142127 -4.0480971 -2.220782
18.05356 -25.077978 -1.4410119
3.0944946 -4.2985244 -2.2123277
3.306736 -4.5933461 -2.2100782
3.5521278 -4.934217 -2.2128704
3.7948327 -5.2713552 -2.1947222
4.0948367 -5.688087 -2.1869965
4.4659772 -6.2036338 -2.1918683
4.8483152 -6.7347345 -2.1723907
5.3405733 -7.4185243 -2.1658738
5.9068427 -8.205122 -2.1489754
6.5659561 -9.1206884 -2.1173995
7.3247728 -10.246239 -2.0693064
8.3815842 -11.724557 -2.0255256
9.6889811 -13.553406 -1.9483118
2.6171162 -3.6609461 -2.2604146
11.454583 -16.023214 -1.8375884
2.751219 -3.8485358 -2.2392685
13.960455 -19.528545 -1.6786197
2.9039605 -4.0621977 -2.2232225
17.986567 -25.160461 -1.4423162
3.0877361 -4.3192716 -2.2177236
3.3012371 -4.6179266 -2.2166257
3.7729237 -5.2777443 -2.1921611
4.0759521 -5.7016349 -2.1869965
4.4498529 -6.2246656 -2.1940734
4.8315811 -6.7586451 -2.1749234
5.3125482 -7.4314446 -2.1644907
5.879601 -8.2246647 -2.1489754
6.5345321 -9.1408129 -2.1170292
7.2959743 -10.274026 -2.0702791
8.3492947 -11.757288 -2.0266387
9.6371536 -13.570822 -1.9464536
2.6087067 -3.6735218 -2.2631078
11.393812 -16.044508 -1.8359164
2.735975 -3.8527381 -2.2367015
13.884018 -19.551161 -1.6768062
2.8922427 -4.0727906 -2.2240362
17.958328 -25.288513 -1.4464155
3.0656033 -4.3169131 -2.2115569
3.2899489 -4.6328316 -2.2188082
3.5343361 -4.9769721 -2.2217629
3.7530332 -5.2849364 -2.1902404
4.0580196 -5.7144113 -2.1869965
4.4269361 -6.2339115 -2.1924198
4.8125648 -6.7769446 -2.1759362
5.2925553 -7.4528565 -2.1658738
5.8492022 -8.2367144 -2.1473122
6.5057831 -9.1612968 -2.1170292
7.2556992 -10.285608 -2.0680094
8.3077517 -11.776988 -2.0255256
9.5876007 -13.59129 -1.9450597
2.5847907 -3.6641741 -2.2523353
11.345647 -16.083479 -1.836288
2.7301102 -3.8701775 -2.2418356
13.816778 -19.586531 -1.6761086
2.8710077 -4.0699124 -2.2175283
17.868431 -25.330112 -1.445577
3.0541537 -4.3295383 -2.2130985
3.2657132 -4.6294432 -2.2122607
3.4959333 -4.955801 -2.2073979
3.7440574 -5.3075395 -2.1947222
4.0378461 -5.7240114 -2.1858051
4.4028974 -6.2415047 -2.1902146
4.7912507 -6.7920303 -2.1759362
5.2691159 -7.4694471 -2.1658738
5.8266807 -8.2598457 -2.1485596
6.4758368 -9.1800833 -2.1166589
7.2256141 -10.311584 -2.0686579
8.2695751 -11.801408 -2.0252471
9.5288963 -13.598569 -1.9418074
2.5865991 -3.6913035 -2.2640054
11.280206 -16.097841 -1.8338727
2.7200129 -3.8816965 -2.243547
13.743727 -19.613503 -1.6747135
2.8644984 -4.0878901 -2.222409
17.762396 -25.348494 -1.4434342
3.042655 -4.342135 -2.2146404
3.2383237 -4.6213717 -2.203531
3.4760325 -4.9606028 -2.2046618
3.719753 -5.3084135 -2.1902404
4.0209389 -5.7382321 -2.1864007
4.3887835 -6.2631783 -2.192971
4.7698889 -6.8070493 -2.1759362
5.2489743 -7.490746 -2.1672573
5.801825 -8.2797127 -2.1489754
6.4458361 -9.1987724 -2.1162887
7.1925077 -10.337109 -2.0689824
8.2281322 -11.825513 -2.0246904
9.4814806 -13.626832 -1.9413428
2.5692406 -3.6925254 -2.259517
11.219938 -16.125351 -1.8327581
2.7050607 -3.8877268 -2.2418356
13.68203 -19.663883 -1.675132
2.8467526 -4.0913672 -2.2191553
17.662266 -25.384296 -1.4421299
3.0292933 -4.3537159 -2.2154112
3.3581145 -4.8262992 -2.2959208
3.4584904 -4.9705596 -2.2039778
3.6978006 -5.3144975 -2.1876793
3.9997077 -5.7484002 -2.1852093
4.3690877 -6.2792749 -2.1935222
4.7428703 -6.8164773 -2.1739104
5.2196593 -7.5017204 -2.1654127
5.7721024 -8.2956953 -2.1481438
6.415297 -9.2200975 -2.1162887
7.1559453 -10.357656 -2.0683336
8.1832438 -11.844588 -2.0232987
9.4452734 -13.671274 -1.9432014
2.5590134 -3.7039661 -2.2613122
11.172062 -16.170662 -1.8336871
2.6839335 -3.884778 -2.2349904
13.615613 -19.707506 -1.6749924
2.8321311 -4.0992823 -2.2183418
17.546194 -25.396708 -1.4395212
3.0085454 -4.3546276 -2.2107861
3.2192516 -4.6596084 -2.2115333
3.4302375 -4.964993 -2.1964533
3.6801567 -5.3267312 -2.1876793
3.9806232 -5.7616324 -2.1852093
4.3504267 -6.2968931 -2.1946247
4.7224393 -6.8353515 -2.1749234
5.1936474 -7.5173874 -2.1649516
5.7456732 -8.3164005 -2.1485596
6.3846865 -9.2413206 -2.1162887
7.1267214 -10.384967 -2.0693064
8.1437511 -11.86697 -2.022742
9.3955336 -13.691051 -1.9418074
2.5503981 -3.7164075 -2.2640054
11.129094 -16.217173 -1.8349875
2.6809216 -3.9066045 -2.2426913
13.549118 -19.743601 -1.6744344
2.8285432 -4.121717 -2.2256629
17.445972 -25.422049 -1.4378442
3.0000713 -4.3716655 -2.2146404
3.2151387 -4.6850591 -2.2188082
3.6623323 -5.3367038 -2.1870391
3.9635832 -5.7756829 -2.1858051
4.3251839 -6.3026028 -2.1918683
4.6998472 -6.8485575 -2.174417
5.1711068 -7.5352707 -2.1654127
5.7206249 -8.3360214 -2.1489754
6.3545108 -9.2597122 -2.1159182
7.0940614 -10.407305 -2.0693064
8.1142387 -11.903951 -2.0246904
9.3323364 -13.690954 -1.9376261
2.539717 -3.7258782 -2.2649031
11.066875 -16.235601 -1.8331296
2.6676176 -3.9135139 -2.2418356
13.480283 -19.776176 -1.6735973
2.8207262 -4.1381311 -2.2297304
17.358147 -25.465176 -1.437192
2.9852834 -4.3795438 -2.2138696
3.1857142 -4.6735849 -2.2086234
3.406384 -4.9973178 -2.2012417
3.6455488 -5.3481832 -2.1870391
3.9464946 -5.7896838 -2.1864007
4.3075285 -6.3193369 -2.192971
4.6826687 -6.8696842 -2.1764431
5.1550817 -7.5627351 -2.1686406
5.6888995 -8.34587 -2.1468964
6.3264971 -9.2812538 -2.1162887
7.0613303 -10.42954 -2.0693064
8.0634775 -11.909704 -2.0213504
9.2859373 -13.715271 -1.9369291
2.5209854 -3.7234793 -2.2586191
11.005767 -16.255447 -1.8314576
2.6542962 -3.9203787 -2.2409799
13.419206 -19.820082 -1.6737368
2.8025901 -4.1394076 -2.2256629
17.276939 -25.517931 -1.4370989
2.9746137 -4.3934855 -2.2161822
3.1595263 -4.6666002 -2.2006211
3.3853991 -5.0002131 -2.1978214
3.6319156 -5.3643165 -2.1889598
3.9282858 -5.8020535 -2.1864007
4.2908878 -6.3376141 -2.1946247
4.6599784 -6.8827581 -2.1759362
5.1192956 -7.5611672 -2.1635685
5.6659427 -8.3685608 -2.1481438
6.2995119 -9.3043385 -2.1170292
7.0344119 -10.464364 -2.0715761
8.0184135 -11.928161 -2.0199585
9.2370787 -13.741043 -1.9362322
2.5136092 -3.7392354 -2.2631078
10.958465 -16.301769 -1.8325722
2.6432977 -3.9321594 -2.2426913
13.352291 -19.862816 -1.6735973
2.7857895 -4.1441298 -2.2232225
17.208939 -25.599953 -1.4384964
2.9579685 -4.4002624 -2.2146404
3.1565061 -4.6956062 -2.2093508
3.3761384 -5.0223308 -2.2026098
3.6204491 -5.385766 -2.1928012
3.910089 -5.8166332 -2.1869965
4.268775 -6.3502135 -2.1940734
4.639287 -6.9013858 -2.1769495
5.1039643 -7.5926375 -2.1677184
5.6392508 -8.3889275 -2.1485596
6.2697182 -9.3268089 -2.1173995
6.994195 -10.479425 -2.0699549
7.9843125 -11.962921 -2.0213504
9.1859474 -13.763336 -1.9350706
2.4962349 -3.7401171 -2.2586191
10.912086 -16.349615 -1.8338727
2.6362653 -3.9499249 -2.2478251
13.285245 -19.905327 -1.6734579
2.7760894 -4.1594238 -2.2264767
17.143919 -25.686789 -1.4401734
2.9402871 -4.4054418 -2.2123277
3.3563356 -5.0288086 -2.2005577
3.5973103 -5.3898616 -2.1896
3.8918388 -5.8311548 -2.1875923
4.2466264 -6.3627343 -2.1935222
4.6142278 -6.9135127 -2.1759362
5.0765982 -7.6062837 -2.1667962
5.6114016 -8.4075813 -2.1485596
6.2420287 -9.3524523 -2.1185105
6.9601479 -10.499702 -2.0696306
7.9477844 -11.989597 -2.0216286
9.1393719 -13.787162 -1.9343739
2.4864476 -3.7509201 -2.2604146
10.854067 -16.373857 -1.8327581
2.6128561 -3.9416132 -2.2384131
13.208313 -19.925346 -1.6716441
2.7589703 -4.1620331 -2.2232225
17.057617 -25.732197 -1.4397075
2.9274521 -4.4161954 -2.2130985
3.1322939 -4.7252088 -2.2137158
3.3415589 -5.0408945 -2.2012417
3.5814066 -5.4027162 -2.1902404
3.8745553 -5.8449445 -2.1881881
4.2244921 -6.3728395 -2.1924198
4.5924854 -6.9279752 -2.1759362
5.0516024 -7.6205735 -2.1663351
5.580637 -8.4186459 -2.1468964
6.2115302 -9.3703785 -2.1181402
6.9303837 -10.526462 -2.0706034
7.9133458 -12.019468 -2.0224636
9.1014748 -13.824101 -1.9355354
2.467772 -3.7482641 -2.2541306
10.802573 -16.407875 -1.8327581
2.6014545 -3.9513123 -2.2392685
13.153331 -19.978407 -1.6726207
2.7509048 -4.1783104 -2.2272899
16.943733 -25.735598 -1.4369125
2.9196527 -4.4346194 -2.2177236
3.1174338 -4.7350259 -2.2137158
3.3112373 -5.0293918 -2.1916652
3.5592062 -5.4060278 -2.1870391
3.856174 -5.8570881 -2.1881881
4.2107935 -6.3957143 -2.1957273
4.5728264 -6.945601 -2.1769495
5.0276365 -7.6364059 -2.1663351
5.5563135 -8.4394064 -2.147728
6.1820621 -9.3898458 -2.1181402
6.8983598 -10.549833 -2.0709276
7.8733788 -12.040955 -2.0219071
9.05474 -13.847639 -1.9348384
2.4589188 -3.7604856 -2.2568238
10.756422 -16.450064 -1.8336871
2.5860603 -3.9549265 -2.2367015
13.081768 -20.006273 -1.6715046
2.7327652 -4.1792855 -2.2232225
16.812506 -25.711784 -1.4326268
2.9026768 -4.4391356 -2.2154112
3.1066213 -4.7510333 -2.2166257
3.5390944 -5.412425 -2.1851184
3.8377545 -5.8691735 -2.1881881
4.1822629 -6.3960385 -2.1913171
4.5467482 -6.953455 -2.1749234
5.0068159 -7.6570487 -2.1677184
5.5329847 -8.461731 -2.1489754
6.1546831 -9.4125109 -2.1188807
6.8708596 -10.584239 -2.0731974
7.8290925 -12.060352 -2.0207934
9.0163403 -13.889252 -1.9364645
2.4483812 -3.7716169 -2.2586191
10.693139 -16.472282 -1.8322006
2.5778527 -3.9710619 -2.2409799
13.022957 -20.061258 -1.6724813
2.7188909 -4.1883249 -2.2232225
16.738028 -25.784153 -1.4335586
2.881911 -4.4394493 -2.2107861
3.0867915 -4.7550583 -2.2137158
3.2807367 -5.0538216 -2.193033
3.5211265 -5.4241314 -2.1851184
3.8151515 -5.8770633 -2.1864007
4.1641703 -6.41471 -2.192971
4.5247178 -6.9701166 -2.1754298
4.9782186 -7.6687131 -2.1663351
5.5027637 -8.4767513 -2.1481438
6.127717 -9.4394627 -2.120362
6.8332977 -10.599137 -2.0719004
7.7879467 -12.079896 -2.0199585
8.980197 -13.929196 -1.9380907
2.4384573 -3.7822945 -2.2604146
10.64997 -16.519184 -1.8336871
2.5653648 -3.979141 -2.2409799
12.939329 -20.070211 -1.6698306
2.7086902 -4.2014532 -2.2256629
16.639624 -25.809744 -1.4320678
2.87095 -4.4531345 -2.2130985
3.0728474 -4.7662983 -2.2144432
3.2841926 -5.0941157 -2.2060299
3.505096 -5.4367595 -2.1857588
3.7966697 -5.88902 -2.1864007
4.1429558 -6.4261451 -2.1924198
4.5027986 -6.9842973 -2.1754298
4.9498839 -7.6777725 -2.1644907
5.4814072 -8.5022182 -2.150223
6.0948377 -9.4537115 -2.119251
6.7981119 -10.621738 -2.0719004
7.7499804 -12.108991 -2.0205152
8.9350281 -13.960572 -1.938323
2.4249377 -3.7888544 -2.259517
10.590837 -16.547699 -1.8329438
2.5531297 -3.9891481 -2.2418356
12.874853 -20.116369 -1.6701095
2.6917877 -4.2057953 -2.2232225
16.566866 -25.884972 -1.4331858
2.8611412 -4.4704022 -2.2169528
3.057025 -4.7764616 -2.2144432
3.2571507 -5.089149 -2.1991894
3.4890904 -5.4515443 -2.1870391
3.7791786 -5.9047937 -2.1875923
4.121623 -6.4398479 -2.1924198
4.4764848 -6.9943027 -2.1739104
4.923347 -7.6925049 -2.1640296
5.4521275 -8.5186996 -2.149807
6.0613356 -9.4705601 -2.1185105
6.7625909 -10.639712 -2.0712519
7.7129626 -12.13495 -2.0207934
8.8975163 -13.998631 -1.9397168
2.4139812 -3.7979622 -2.2604146
10.535594 -16.57585 -1.8323865
2.5425241 -4.0002012 -2.243547
12.813731 -20.160086 -1.6703885
2.684442 -4.2234831 -2.2281034
16.526186 -26.000961 -1.4367262
2.8470826 -4.4793692 -2.2169528
3.0440028 -4.789187 -2.2158983
3.2421544 -5.1009426 -2.1998734
3.4729626 -5.4640775 -2.1876793
3.7595851 -5.9150267 -2.1869965
4.1085901 -6.4641223 -2.1962786
4.4534507 -7.0066986 -2.173404
4.8960238 -7.7030067 -2.1626461
5.4242883 -8.5341349 -2.1493912
6.0315523 -9.4895554 -2.1185105
6.7270265 -10.657567 -2.0706034
7.6748028 -12.159121 -2.0207934
8.8460751 -14.014756 -1.9380907
2.4020381 -3.8055272 -2.2604146
10.486657 -16.613916 -1.8329438
2.5309098 -4.0096974 -2.2444026
12.747141 -20.195181 -1.6699699
2.6643341 -4.2210803 -2.222409
16.456154 -26.071337 -1.4377511
2.8310266 -4.4851699 -2.2154112
3.0309312 -4.8018765 -2.2173531
3.2241077 -5.1079249 -2.1985054
3.4588144 -5.4797683 -2.1896
3.7420037 -5.9284225 -2.1875923
4.0841584 -6.4704952 -2.1940734
4.437614 -7.0304718 -2.1764431
4.873879 -7.721642 -2.1635685
5.3943195 -8.5461712 -2.1481438
5.9985642 -9.5034714 -2.1173995
6.6855927 -10.674294 -2.0693064
7.6312604 -12.184158 -2.0205152
8.7981539 -14.047235 -1.938323
2.3877907 -3.8123744 -2.259517
10.425428 -16.645359 -1.8323865
2.507302 -4.0031872 -2.235846
12.67445 -20.236172 -1.669691
2.6495831 -4.2303553 -2.222409
16.37459 -26.143858 -1.4385896
2.8163326 -4.4965892 -2.2161822
2.9943726 -4.7808499 -2.2028036
3.2142382 -5.1318898 -2.2039778
3.4456995 -5.5014434 -2.1934416
3.7192593 -5.9382124 -2.1864007
4.0595055 -6.4814534 -2.192971
4.4109907 -7.0426388 -2.1754298
4.8479276 -7.7402568 -2.1640296
5.3644543 -8.564949 -2.1481438
5.9622235 -9.5193548 -2.1162887
6.6551518 -10.700272 -2.0702791
7.5950375 -12.211436 -2.0210719
8.7497826 -14.068056 -1.9373937
2.375802 -3.8198569 -2.259517
10.369928 -16.672956 -1.8318292
2.50617 -4.0294652 -2.246114
12.589739 -20.242006 -1.6669008
2.6411049 -4.2464156 -2.2264767
16.301872 -26.21044 -1.439428
2.8031669 -4.5069818 -2.2169528
2.9911458 -4.8092175 -2.2115333
3.1792409 -5.11164 -2.1909809
3.4233956 -5.5041966 -2.1902404
3.7005856 -5.9498672 -2.1864007
4.0431848 -6.5007048 -2.1951759
4.3868003 -7.0531759 -2.174417
4.8194752 -7.7488384 -2.162185
5.335453 -8.5784369 -2.1473122
5.9343648 -9.541378 -2.1170292
6.6204658 -10.719448 -2.0699549
7.5483103 -12.221756 -2.0188451
8.6961479 -14.080265 -1.935303
2.3590941 -3.819699 -2.2550282
10.31959 -16.708841 -1.8322006
2.4849494 -4.0234761 -2.2384131
12.536567 -20.298433 -1.6682957
2.6325517 -4.2624645 -2.2305439
16.155411 -26.157841 -1.4337449
2.7870541 -4.5126252 -2.2154112
3.1671166 -5.1279993 -2.1937172
3.4130561 -5.5262094 -2.1947222
3.6828785 -5.963089 -2.1869965
4.0187011 -6.5068321 -2.192971
4.3636041 -7.0652776 -2.1739104
4.8022661 -7.7755318 -2.1654127
5.3074484 -8.5934925 -2.1468964
5.903327 -9.558301 -2.1166589
6.5826306 -10.733463 -2.0686579
7.5150557 -12.253851 -2.020237
8.6612186 -14.122754 -1.9373937
2.3582952 -3.8453739 -2.265801
10.266006 -16.739479 -1.8320148
2.4760776 -4.0374269 -2.2418356
12.467524 -20.329214 -1.6675984
2.6143723 -4.2629261 -2.2264767
16.074198 -26.210163 -1.433838
2.7747936 -4.5245051 -2.2169528
2.9686615 -4.840621 -2.2173531
3.1549218 -5.1443319 -2.1964533
3.3907256 -5.5288277 -2.1915209
3.6681197 -5.9811392 -2.1893795
4.0042706 -6.5292578 -2.1962786
4.3423982 -7.0805998 -2.174417
4.7706933 -7.7789669 -2.162185
5.2783809 -8.6067886 -2.1460648
5.8712153 -9.5734482 -2.1159182
6.5478511 -10.752406 -2.0683336
7.4682798 -12.263867 -2.0180101
8.6033764 -14.127841 -1.9343739
2.3387661 -3.8405519 -2.2586191
10.201973 -16.752939 -1.8299713
2.466202 -4.049818 -2.2444026
12.402556 -20.366579 -1.6674588
2.6028671 -4.2742395 -2.2281034
15.995934 -26.267361 -1.4342107
2.7634451 -4.5379291 -2.2192655
2.956346 -4.8546972 -2.2195356
3.1319017 -5.142982 -2.1916652
3.377281 -5.5459261 -2.1940818
3.6443455 -5.9844799 -2.1864007
3.9877379 -6.5483737 -2.1984837
4.3241572 -7.1008177 -2.1764431
4.7563534 -7.8105383 -2.1667962
5.2543669 -8.6283407 -2.1473122
5.8441768 -9.5968838 -2.1170292
6.5121593 -10.774059 -2.0683336
7.4296198 -12.291955 -2.0185668
8.5595617 -14.161389 -1.9350706
2.3297157 -3.8544047 -2.2622101
10.161815 -16.812243 -1.8327581
2.4490187 -4.0517855 -2.2409799
12.335983 -20.409302 -1.6675984
2.587734 -4.2812834 -2.2272899
15.91184 -26.325386 -1.4344901
2.7483819 -4.5470676 -2.2192655
2.9363768 -4.8580966 -2.2166257
3.131357 -5.1806822 -2.2032938
3.3569119 -5.5538521 -2.1928012
3.6313939 -6.0079694 -2.1905711
3.9650066 -6.5599155 -2.1979325
4.3025885 -7.1184287 -2.1774559
4.7263999 -7.8196049 -2.1649516
5.2247143 -8.644043 -2.1468964
5.8123212 -9.61621 -2.1170292
6.4763956 -10.795596 -2.0683336
7.3877993 -12.314828 -2.0182884
8.506423 -14.179478 -1.933677
2.3132436 -3.8559787 -2.2586191
10.102935 -16.840725 -1.8322006
2.4374287 -4.0629845 -2.2426913
12.251814 -20.422722 -1.6653661
2.5725827 -4.2882748 -2.2264767
15.867622 -26.449966 -1.4384032
2.7294908 -4.5498271 -2.2161822
2.9125834 -4.8550267 -2.2108057
3.1006246 -5.1684752 -2.1937172
3.3394508 -5.5665784 -2.1934416
3.6104689 -6.018342 -2.1899753
3.9412532 -6.5697312 -2.1968298
4.2789593 -7.132658 -2.1774559
4.6974401 -7.8302302 -2.1635685
5.1940084 -8.6579666 -2.1460648
5.7773666 -9.6303749 -2.1159182
6.4404287 -10.812497 -2.0676851
7.3561697 -12.349886 -2.020237
8.4669189 -14.214665 -1.9348384
2.3038621 -3.8678329 -2.2613122
10.04794 -16.868959 -1.8318292
2.4237275 -4.0690684 -2.2418356
12.196783 -20.476538 -1.6666216
2.5553579 -4.2900562 -2.2232225
15.832501 -26.580355 -1.442782
2.7170722 -4.5615501 -2.2177236
2.8868294 -4.8465462 -2.2028036
3.1055307 -5.2137122 -2.208766
3.325825 -5.5835528 -2.1960025
3.592521 -6.0312948 -2.1905711
3.9274814 -6.5936422 -2.2006888
4.2555404 -7.144403 -2.1769495
4.6718216 -7.8432755 -2.1631072
5.1717892 -8.6826448 -2.1481438
5.7460785 -9.6467896 -2.1155479
6.4064283 -10.832677 -2.0676851
7.3092694 -12.359298 -2.0180101
8.4191866 -14.236064 -1.9341415
2.2935193 -3.8781285 -2.2631078
9.9979362 -16.905584 -1.8323865
2.4155333 -4.0844431 -2.246114
12.161846 -20.564554 -1.6706675
2.5483785 -4.3090715 -2.2289169
15.757054 -26.643717 -1.4435273
2.7036679 -4.5716515 -2.2184944
2.8858147 -4.8796453 -2.2137158
3.0728726 -5.1959429 -2.1971374
3.3082674 -5.5939736 -2.1960025
3.5745273 -6.0441942 -2.1911669
3.8989186 -6.59271 -2.1962786
4.23209 -7.1560717 -2.1764431
4.6461678 -7.8562388 -2.1626461
5.1405025 -8.6921139 -2.1464806
5.7167439 -9.6664839 -2.1159182
6.373364 -10.854453 -2.0680094
7.274416 -12.38903 -2.0191236
8.366375 -14.248742 -1.9322832
2.2758946 -3.8760679 -2.2577214
9.9387255 -16.926607 -1.8312718
2.3990283 -4.0857759 -2.2426913
12.068894 -20.554489 -1.6667612
2.532053 -4.3123302 -2.2264767
15.702607 -26.743052 -1.4462292
2.6874232 -4.5769405 -2.2169528
2.8582075 -4.8678026 -2.2042587
3.0612917 -5.2136745 -2.2005577
3.2925959 -5.6076078 -2.197283
3.5506876 -6.0471625 -2.1881881
3.8830545 -6.6132154 -2.1990349
4.2135053 -7.1760054 -2.1784689
4.6244197 -7.8758316 -2.1640296
5.1141601 -8.7099075 -2.1468964
5.6893334 -9.6894827 -2.1170292
6.3334489 -10.873222 -2.0673611
7.2241473 -12.402368 -2.017175
8.3075857 -14.262407 -1.9301924
2.2668486 -3.8917103 -2.2622101
9.8835878 -16.968079 -1.8320148
2.3865712 -4.0972495 -2.2444026
12.014143 -20.625799 -1.6691329
2.5188236 -4.3242998 -2.2281034
15.552849 -26.701027 -1.4410119
2.672359 -4.5878882 -2.2177236
2.8458862 -4.8857985 -2.207896
3.048749 -5.2340722 -2.2046618
3.2634645 -5.602694 -2.1908805
3.5372448 -6.0727181 -2.1929541
3.8647845 -6.635036 -2.2017913
4.1903782 -7.1940131 -2.1794817
4.591022 -7.8818359 -2.1612628
5.0827408 -8.726016 -2.1464806
5.6574535 -9.7126789 -2.1177697
6.2982712 -10.891357 -2.0670369
7.1851492 -12.425002 -2.017175
8.2587614 -14.281559 -1.9292632
2.2474537 -3.8864353 -2.2550282
9.8332243 -17.004217 -1.8325722
2.3718777 -4.1015968 -2.2426913
11.946291 -20.65826 -1.6687144
2.5061409 -4.3337731 -2.2289169
15.466889 -26.746298 -1.4408256
2.6588566 -4.5978584 -2.2184944
3.0162969 -5.2159662 -2.193033
3.248693 -5.6178398 -2.1928012
3.5143266 -6.0771894 -2.1905711
3.8410337 -6.6421518 -2.2001374
4.1667886 -7.2054672 -2.1789753
4.5730581 -7.9080133 -2.1644907
5.0533442 -8.738554 -2.145649
5.6259289 -9.7287025 -2.1173995
6.2679534 -10.917936 -2.0683336
7.1480513 -12.450949 -2.0177319
8.210886 -14.302265 -1.9285662
2.2352328 -3.8934767 -2.2550282
9.7747974 -17.02639 -1.8316433
2.3607805 -4.112164 -2.2444026
11.89325 -20.716452 -1.6703885
2.4852359 -4.3289485 -2.222409
15.38378 -26.796488 -1.4409187
2.6434798 -4.6045885 -2.2177236
2.8281178 -4.9262033 -2.2180808
3.0204811 -5.2612739 -2.208082
3.2310278 -5.6280184 -2.1928012
3.5009201 -6.0981345 -2.1941454
3.8258908 -6.6641898 -2.2034452
4.1422048 -7.2151666 -2.1779625
4.5501289 -7.9257164 -2.1654127
5.0287876 -8.7594757 -2.1468964
5.6002297 -9.7548513 -2.119251
6.2336226 -10.937574 -2.0683336
7.1089001 -12.473345 -2.0177319
8.1580448 -14.314185 -1.926708
2.2274146 -3.9082434 -2.259517
9.7291479 -17.070858 -1.8331296
2.3460596 -4.1164188 -2.2426913
11.828109 -20.753714 -1.6703885
2.4743378 -4.3414974 -2.2248495
15.29952 -26.844687 -1.4409187
2.6290009 -4.6128707 -2.2177236
2.7997129 -4.9124031 -2.207896
3.0076597 -5.2772689 -2.2108181
3.2161455 -5.6430798 -2.1947222
3.4798543 -6.1057863 -2.1929541
3.8049355 -6.676177 -2.2034452
4.1214328 -7.2315059 -2.1789753
4.5223165 -7.9348998 -2.1640296
5.0022125 -8.7769308 -2.1473122
5.5607972 -9.7570295 -2.1159182
6.2011747 -10.960539 -2.0689824
7.0677285 -12.492167 -2.017175
8.1218395 -14.355302 -1.9287987
2.2160058 -3.9167769 -2.2604146
9.6842957 -17.116934 -1.8348017
2.332226 -4.1221952 -2.2418356
11.763834 -20.792505 -1.6705281
2.466085 -4.3587899 -2.2297304
15.261348 -26.97434 -1.4452975
2.6163142 -4.6243196 -2.2192655
2.7778449 -4.9098239 -2.2028036
2.9882896 -5.2817836 -2.208766
3.2030666 -5.6614008 -2.1979232
3.4625356 -6.1200109 -2.1941454
3.7829969 -6.6864238 -2.202894
4.1025052 -7.2511535 -2.1810014
4.4992828 -7.9524546 -2.1649516
4.9775052 -8.7977104 -2.1485596
5.5339894 -9.7812929 -2.1173995
6.1638274 -10.979321 -2.0686579
7.0282035 -12.518991 -2.0177319
8.0693293 -14.373496 -1.9276371
2.2047551 -3.9272211 -2.2622101
9.6235819 -17.14201 -1.8340585
2.3211985 -4.1346359 -2.2444026
11.691889 -20.826183 -1.6701095
2.4525115 -4.3685374 -2.2305439
15.167903 -27.017834 -1.4449248
2.6018682 -4.6345792 -2.2200363
2.7688441 -4.9320049 -2.2086234
2.9486775 -5.2523336 -2.1923492
3.1870577 -5.6769481 -2.1998439
3.4412873 -6.1297946 -2.1935496
3.7636261 -6.7039609 -2.2045476
4.0765429 -7.261344 -2.1799886
4.4728866 -7.9673314 -2.1649516
4.9396844 -8.7988148 -2.1448174
5.4995985 -9.7961626 -2.1166589
6.1216235 -10.989356 -2.0667124
6.9885793 -12.545689 -2.0182884
8.0235538 -14.403646 -1.9281017
2.1917202 -3.9345107 -2.2622101
9.5744371 -17.187744 -1.8355447
2.3048358 -4.1375728 -2.2418356
11.618881 -20.857868 -1.6695515
2.432677 -4.3670692 -2.2256629
15.076283 -27.064493 -1.4447385
2.5837913 -4.6383452 -2.2177236
2.7497544 -4.9362774 -2.2064409
2.9467924 -5.2899938 -2.2039778
3.1672933 -5.6858306 -2.1992037
3.4218707 -6.1428404 -2.1941454
3.7451174 -6.7231231 -2.2067528
4.0533834 -7.2765131 -2.180495
4.4436011 -7.9770207 -2.1635685
4.914288 -8.8219833 -2.1464806
5.4661274 -9.8126287 -2.1162887
6.0861135 -11.006806 -2.0663881
6.9472132 -12.564116 -2.0177319
7.9859543 -14.44269 -1.9299601
2.1776185 -3.9382484 -2.2604146
9.518465 -17.214254 -1.8351732
2.2979488 -4.1558671 -2.2478251
11.555225 -20.897758 -1.6698306
2.4207132 -4.3778877 -2.2272899
14.984413 -27.099485 -1.4440864
2.5700994 -4.6480541 -2.2184944
2.7306266 -4.9383698 -2.203531
2.9237926 -5.2877126 -2.1991894
3.1494145 -5.6957526 -2.1992037
3.4080985 -6.1635852 -2.1977201
3.7211859 -6.7298079 -2.2050989
4.0314388 -7.2909036 -2.1810014
4.4204016 -7.9943471 -2.1644907
4.884655 -8.8339548 -2.145649
5.4352722 -9.8297529 -2.1162887
6.0591025 -11.039713 -2.0689824
6.9086618 -12.587615 -2.0180101
7.9615688 -14.506016 -1.9350706
2.1669559 -3.948204 -2.2622101
9.4633827 -17.242327 -1.8349875
2.2814028 -4.1567268 -2.2444026
11.494318 -20.942703 -1.6705281
2.4051902 -4.382268 -2.2256629
14.881905 -27.114901 -1.4424093
2.5528212 -4.6512523 -2.2161822
2.9098797 -5.3018146 -2.2012417
3.1260359 -5.6956525 -2.1953623
3.385963 -6.1692405 -2.1959326
3.7037261 -6.7482066 -2.207304
4.0103765 -7.3069253 -2.1820145
4.3971381 -8.0116062 -2.1654127
4.85782 -8.8509712 -2.1460648
5.3996372 -9.8381643 -2.1144369
6.0243468 -11.063212 -2.0696306
6.8659339 -12.608716 -2.0177319
7.914371 -14.534083 -1.935303
2.156415 -3.9600766 -2.2649031
9.4137688 -17.287603 -1.8364737
2.267606 -4.1642694 -2.2444026
11.415264 -20.963182 -1.6691329
2.3985085 -4.4046612 -2.2329843
14.76993 -27.123747 -1.4402665
2.5391479 -4.6629338 -2.2177236
2.7120435 -4.9804425 -2.2144432
2.9003708 -5.3262897 -2.2073979
3.106225 -5.7043238 -2.1947222
3.3673122 -6.1837883 -2.1971242
3.6822469 -6.7621403 -2.2078552
3.9879744 -7.3235831 -2.1830275
4.3696151 -8.024435 -2.1649516
4.826571 -8.863596 -2.1452332
5.3735623 -9.8681002 -2.1170292
5.9857502 -11.079657 -2.0689824
6.833497 -12.648841 -2.0205152
7.8614092 -14.551511 -1.9341415
2.1373243 -3.9561992 -2.2586191
9.35355 -17.313473 -1.8359164
2.2529249 -4.170176 -2.243547
11.317235 -20.948263 -1.6649476
2.384757 -4.4141979 -2.2337978
14.6837 -27.179607 -1.4406391
2.5271795 -4.6778231 -2.2208071
2.6955128 -4.9894085 -2.2144432
2.8844786 -5.3391852 -2.208766
3.088192 -5.71626 -2.1953623
3.3440647 -6.1898818 -2.1953371
3.6652851 -6.7844629 -2.211163
3.9627459 -7.3350644 -2.1825209
