# .PCD v0.7 - Point Cloud Data file format
VERSION 0.7
FIELDS x y z
SIZE 4 4 4
TYPE F F F
COUNT 1 1 1
WIDTH 1460
HEIGHT 1
VIEWPOINT 0 0 0 1 0 0 0
POINTS 1460
DATA ascii
-6.6329756 -2.8046064 -2.2471671
-6.6435146 -2.7844939 -2.2477629
-6.6645713 -2.7687359 -2.2519333
-6.6037083 -2.8440056 -2.2435927
-6.6201262 -2.8250883 -2.2459757
-6.5787125 -2.8823771 -2.2412097
-6.5842333 -2.8601754 -2.2400181
-6.5495005 -2.9201348 -2.2376354
-6.5638795 -2.9018614 -2.2394223
-6.5159588 -2.9804883 -2.2358479
-6.5305057 -2.9623704 -2.2376354
-6.5397811 -2.9418378 -2.2376354
-6.4948449 -3.0216975 -2.2352521
-6.5077724 -3.0028796 -2.2364438
-6.4682922 -3.0603123 -2.2328691
-6.4778757 -3.0399747 -2.2328691
-6.4518366 -3.103673 -2.2340608
-6.4546628 -3.080101 -2.2316778
-6.4183211 -3.1637747 -2.2328691
-6.429945 -3.1444323 -2.233465
-6.4420538 -3.1239271 -2.2340608
-6.3858085 -3.1991692 -2.228699
-6.3958268 -3.1790929 -2.228699
-6.353106 -3.2342772 -2.2245288
-6.3706131 -3.2166336 -2.2269118
-6.3303919 -3.2743597 -2.223933
-6.3395157 -3.2524774 -2.2233372
-6.2952948 -3.3331876 -2.2227416
-6.3029327 -3.3105178 -2.22155
-6.309916 -3.2889349 -2.2203586
-6.2641368 -3.3672528 -2.219167
-6.2847924 -3.3529475 -2.2227416
-6.2322073 -3.4021447 -2.2155924
-6.2529368 -3.3880057 -2.219167
-6.206769 -3.4404674 -2.214401
-6.220891 -3.4227931 -2.2155924
-6.1595602 -3.4934316 -2.209635
-6.1727743 -3.4739244 -2.2102308
-6.1869912 -3.4563751 -2.2114222
-6.1358347 -3.531111 -2.2090392
-6.1502123 -3.5137129 -2.2102308
-10.207373 -0.014252871 -2.4185669
-10.19343 -0.081841335 -2.4153392
-10.201429 -0.048074536 -2.4171834
-10.178555 -0.17944723 -2.4121113
-10.186877 -0.14580394 -2.4139557
-10.183393 -0.11375386 -2.4130335
-10.173292 -0.24507798 -2.4111888
-10.179887 -0.21146163 -2.4125724
-10.177387 -0.30916926 -2.4125724
-10.168582 -0.27692917 -2.4102669
-10.147952 -0.3738828 -2.4061167
-10.15886 -0.34055454 -2.4084222
-10.118624 -0.47010228 -2.4001222
-10.135604 -0.43898702 -2.4038112
-10.144711 -0.40745491 -2.4056556
-10.095848 -0.53616935 -2.3955109
-10.111264 -0.50159967 -2.3987389
-10.074692 -0.60031295 -2.391361
-10.086343 -0.56744701 -2.3936665
-10.063068 -0.66133475 -2.3895164
-10.065097 -0.62971455 -2.3895164
-10.034779 -0.75804287 -2.3844442
-10.042933 -0.72693485 -2.3858275
-10.056816 -0.69618648 -2.3885942
-10.021915 -0.82219028 -2.3825996
-10.030268 -0.79116249 -2.3839829
-10.000889 -0.88551915 -2.3789108
-10.009438 -0.8545922 -2.3802941
-9.9813995 -0.9487949 -2.3756831
-9.9941807 -0.91657841 -2.3779883
-9.9621544 -1.0435519 -2.3733773
-9.9692564 -1.0126402 -2.3742995
-9.9744959 -0.97976518 -2.3747606
-9.9494047 -1.1072152 -2.3719938
-9.956892 -1.074633 -2.3729162
-9.9362497 -1.1707574 -2.3706105
-9.9439449 -1.1382434 -2.3715327
-9.897583 -1.2310534 -2.3632329
-9.9209309 -1.200565 -2.3678439
-9.8797779 -1.2936828 -2.3609271
-9.8898048 -1.2616518 -2.3623104
-10.285785 0.71384001 -2.4430063
-10.283491 0.74615073 -2.4430063
-10.284353 0.64703536 -2.4416227
-10.284094 0.68126506 -2.4420841
-10.276659 0.57995254 -2.4388561
-10.282557 0.61269581 -2.4407005
-10.25881 0.51250815 -2.4337838
-10.278525 0.5458703 -2.4388561
-10.251589 0.41353893 -2.4310172
-10.254128 0.4459103 -2.4319394
-10.250649 0.47982115 -2.4314783
-10.254046 0.34732798 -2.4310172
-10.254783 0.38139999 -2.4314783
-10.248294 0.28088927 -2.4291725
-10.24536 0.31481293 -2.4287114
-10.232383 0.21433803 -2.4250226
-10.243289 0.24855231 -2.4277892
-10.220346 0.11594991 -2.4217949
-10.223798 0.1498986 -2.4227169
-10.225223 0.18204953 -2.423178
-10.211258 0.01781941 -2.4194891
-10.213098 0.049911328 -2.4199502
-10.228444 0.083907008 -2.4236391
-9.1303177 -0.012748946 -2.3901873
-9.1242266 -0.07325688 -2.3886676
-9.1244202 -0.042999096 -2.3886676
-9.119235 -0.16077149 -2.3876545
-9.1177835 -0.13050209 -2.3871481
-9.1200829 -0.10187613 -2.3876545
-9.0947952 -0.21909663 -2.3815765
-9.1128826 -0.1892973 -2.3861353
-9.0855045 -0.27599996 -2.3795507
-9.0921288 -0.24761327 -2.3810701
-9.0699978 -0.33416757 -2.3760049
-9.0807247 -0.30441231 -2.3785374
-9.0470457 -0.42031771 -2.37094
-9.0541191 -0.39214644 -2.3724594
-9.0591736 -0.36385506 -2.3734727
-9.0421267 -0.48020843 -2.3704336
-9.0514765 -0.44902575 -2.3724594
-9.0272493 -0.53789979 -2.3673944
-9.0367098 -0.50839579 -2.3694205
-9.0237951 -0.59303474 -2.3673944
-9.027544 -0.56480092 -2.3679011
-9.0098495 -0.68061811 -2.3653684
-9.0100145 -0.65216941 -2.364862
-9.0139484 -0.62399364 -2.3653684
-8.9975538 -0.7381525 -2.3633425
-9.0133305 -0.71094894 -2.366888
-8.9950571 -0.76798576 -2.3633425
-9.2301645 1.3317295 -2.441344
-9.227849 1.3610053 -2.4418504
-9.2328224 1.271306 -2.4398246
-9.2364464 1.3013835 -2.4418504
-9.2350044 1.1813914 -2.4372919
-9.2312469 1.2104007 -2.4372919
-9.225482 1.2391362 -2.4367855
-9.2291918 1.1184868 -2.4337463
-9.2369518 1.150521 -2.4367855
-9.2323771 1.0584251 -2.4327335
-9.228816 1.0890352 -2.4327335
-9.2311506 0.99956167 -2.4307075
-9.2258625 1.0299535 -2.4302008
-9.2268429 0.90957665 -2.4271619
-9.2277889 0.93895119 -2.4281747
-9.2228699 0.96773279 -2.4276683
-9.2114782 0.84641635 -2.4215903
-9.2124729 0.87732524 -2.4226031
-9.2146873 0.78835678 -2.4210839
-9.2198734 0.81798387 -2.42311
-9.2195854 0.72883415 -2.4210839
-9.2151899 0.7592448 -2.4205773
-9.2184353 0.63976526 -2.4190576
-9.2202406 0.66900325 -2.4200709
-9.2142334 0.69767427 -2.4190576
-9.2146521 0.57973564 -2.4170318
-9.2146091 0.61041754 -2.4175384
-9.2124081 0.51989263 -2.4155121
-9.2087975 0.54871482 -2.4150057
-9.2059126 0.45990762 -2.4129798
-9.2121487 0.48923734 -2.4150057
-9.1944361 0.3708944 -2.4089277
-9.1932259 0.39977598 -2.4089277
-9.2053776 0.43089318 -2.4124732
-9.1734362 0.31072524 -2.4028499
-9.1858892 0.34164527 -2.4063954
-9.1597776 0.25105479 -2.3987975
-9.1685638 0.28172582 -2.4013302
-9.155405 0.19177856 -2.3972783
-9.1566534 0.22218519 -2.3977847
-9.149085 0.10379644 -2.395252
-9.1602983 0.13430586 -2.3982911
-9.1559629 0.16301246 -2.3972783
-9.1283779 0.015929703 -2.3896806
-9.1398916 0.044666573 -2.3927197
-9.1435633 0.075007394 -2.3937328
-8.3206739 -0.011618415 -2.3859169
-8.3146458 -0.066756889 -2.3842633
-8.3244343 -0.03922914 -2.3870196
-8.2982445 -0.14629748 -2.3798532
-8.3121405 -0.118971 -2.3837121
-8.314395 -0.092876166 -2.3842633
-8.2990484 -0.19992684 -2.3804045
-8.3015881 -0.1724447 -2.3809557
-8.2899418 -0.25183234 -2.3781991
-8.2906923 -0.2257871 -2.3781991
-8.2862215 -0.30529073 -2.3776479
-8.2833462 -0.27768186 -2.3765454
-8.2736378 -0.3323046 -2.3743403
-5.0604801 -5.4724803 -2.1372921
-5.0799103 -5.4570765 -2.1378436
-5.0125556 -5.5242014 -2.1389461
-5.0250349 -5.5050454 -2.1372921
-5.0406613 -5.4855204 -2.1361897
-4.9681125 -5.5487304 -2.1356382
-4.990025 -5.5342116 -2.1367409
-4.930604 -5.5769563 -2.1345358
-4.9519343 -5.5657477 -2.1361897
-4.8919592 -5.6057825 -2.1334331
-4.9133515 -5.5947213 -2.135087
-4.8279219 -5.640799 -2.1290231
-4.851891 -5.6328883 -2.1317794
-4.8720837 -5.620522 -2.1328819
-4.7926359 -5.6733265 -2.1295743
-4.8126674 -5.6588674 -2.1301255
-4.7558994 -5.7041578 -2.1295743
-4.7700887 -5.6847701 -2.1279204
-4.7128563 -5.7273288 -2.1268179
-4.7355027 -5.7161102 -2.1284719
-4.6576619 -5.7723041 -2.1268179
-4.6745615 -5.7561502 -2.1262667
-4.6972747 -5.7450819 -2.1279204
-4.6214867 -5.8037658 -2.1273692
-4.6346941 -5.7809081 -2.1246128
-4.5767851 -5.8244181 -2.1240616
-4.5996518 -5.8137326 -2.1257155
-4.537899 -5.8523331 -2.1235104
-4.5631962 -5.8448291 -2.1262667
-4.4940276 -5.8715692 -2.1202028
-4.5206637 -5.868084 -2.1240616
-4.4375787 -5.91675 -2.120754
-4.456017 -5.9004683 -2.1202028
-4.4756956 -5.88797 -2.120754
-4.4014587 -5.9460611 -2.1213052
-4.4189687 -5.9306622 -2.120754
-4.3596606 -5.9720159 -2.1202028
-4.3783021 -5.9559765 -2.1196513
-4.3054194 -6.0159659 -2.1213052
-4.3265457 -6.0055299 -2.1224077
-4.3453918 -5.9919076 -2.1224077
-4.2643185 -6.0428166 -2.120754
-4.2832818 -6.0293894 -2.120754
-4.2241082 -6.0686507 -2.1202028
-4.24752 -6.0593319 -2.1218565
-4.2060833 -6.0811572 -2.1202028
-8.3738317 1.9055616 -2.4625442
-8.3807859 1.8211772 -2.4592369
-8.3806543 1.8487418 -2.4608905
-8.3766813 1.8754797 -2.4614418
-8.3867273 1.7658317 -2.4575827
-8.3864651 1.7948407 -2.4592369
-8.3998384 1.7120191 -2.4581339
-8.3925371 1.7380103 -2.4575827
-8.3970127 1.6276515 -2.4526215
-8.3994026 1.6555088 -2.4548264
-8.39575 1.6837313 -2.4553776
-8.4035683 1.572684 -2.4515188
-8.396697 1.5987177 -2.4509676
-8.4078732 1.5173588 -2.4498649
-8.4118137 1.4620456 -2.448211
-8.4125986 1.4909389 -2.4498649
-8.4115992 1.4061089 -2.4454548
-8.4144707 1.4352882 -2.4476597
-8.4133139 1.3235079 -2.4421473
-8.420269 1.3532289 -2.4454548
-8.4140778 1.3793666 -2.4449036
-8.4140806 1.2680031 -2.4399419
-8.4081554 1.2941384 -2.4393907
-8.4142714 1.2140124 -2.437737
-8.4161205 1.2412844 -2.4393907
-8.4105082 1.1580782 -2.4344294
-8.418251 1.1861025 -2.437737
-8.4136095 1.0763141 -2.432224
-8.4120913 1.102993 -2.4327755
-8.410491 1.1296692 -2.4333267
-8.4129286 1.0195637 -2.4300189
-8.4171324 1.0484072 -2.432224
-8.4116964 0.96433991 -2.427814
-8.4065437 0.99200386 -2.4272628
-8.4042101 0.9100194 -2.4239552
-8.4087877 0.93873727 -2.4261601
-8.4068184 0.82873911 -2.4223011
-8.4079981 0.85553545 -2.423404
-8.4083004 0.77261466 -2.4211986
-8.4171762 0.80158728 -2.4245064
-8.4091587 0.71944034 -2.4200962
-8.4145164 0.74653286 -2.4223011
-8.3982973 0.66390896 -2.4156861
-8.3998814 0.69207102 -2.4167886
-8.3966112 0.58273017 -2.4134808
-8.396656 0.60924548 -2.414032
-8.3985348 0.635912 -2.4151347
-8.3829308 0.52740824 -2.4085195
-8.3945637 0.55609405 -2.4123783
-8.3823223 0.47304758 -2.4074168
-8.3923101 0.50006366 -2.4107244
-8.3756018 0.41842711 -2.4046602
-8.3876848 0.44545189 -2.4085195
-8.3734694 0.33777744 -2.4030066
-8.3762083 0.36424723 -2.404109
-8.3768749 0.39211193 -2.4046602
-8.3658686 0.28337109 -2.4002502
-8.3725691 0.31139594 -2.4024553
-8.3579159 0.22907706 -2.3974938
-8.362875 0.25696912 -2.3991477
-8.3572979 0.17506059 -2.3969424
-8.3585939 0.20282038 -2.3974938
-8.343215 0.094653837 -2.3925323
-8.3486223 0.12240529 -2.3941863
-8.3501196 0.14866525 -2.3947375
-8.3322029 0.014540318 -2.3892248
-8.3378859 0.040747181 -2.3908787
-8.3415489 0.068428233 -2.3919811
-7.6139226 -0.010631557 -2.375849
-7.6175027 -0.061159644 -2.3770406
-7.6100273 -0.035862476 -2.3746576
-7.6127467 -0.13421221 -2.375849
-7.6093326 -0.10891176 -2.3746576
-7.6134548 -0.085046299 -2.375849
-7.6021786 -0.183139 -2.3728704
-7.6046524 -0.1579676 -2.373466
-7.5989685 -0.2308419 -2.3722746
-7.5996566 -0.20696756 -2.3722746
-7.5896883 -0.27962825 -2.3698916
-7.5943904 -0.25458604 -2.3710833
-7.58284 -0.35229203 -2.3687
-7.583909 -0.32846957 -2.3687
-7.5849037 -0.30464208 -2.3687
-7.5669904 -0.40186703 -2.3645298
-7.5702548 -0.37554526 -2.3651257
-7.5604262 -0.45049736 -2.3633385
-7.548008 -0.4960475 -2.3603597
-7.551435 -0.47244939 -2.3609555
-7.5389919 -0.56950724 -2.3591683
-7.5407438 -0.54581958 -2.3591683
-7.5462303 -0.52239037 -2.3603597
-7.5313511 -0.61786634 -2.3579767
-7.5313516 -0.59405422 -2.3573809
-7.5138922 -0.66531038 -2.3538065
-7.5216513 -0.64218843 -2.3555937
-7.4999356 -0.71291608 -2.3508277
-7.5060611 -0.6883899 -2.3520191
-7.4813538 -0.78368396 -2.3472531
-7.4894772 -0.76075339 -2.3490403
-7.495759 -0.73628616 -2.3502319
-7.4704442 -0.83134514 -2.3454659
-7.4750586 -0.80677223 -2.3460617
-7.4516478 -0.87800449 -2.3412957
-7.4621053 -0.85415727 -2.3436787
-7.4363494 -0.92492706 -2.3383169
-7.4431663 -0.90072238 -2.3395085
-7.4176664 -0.99499911 -2.3353381
-7.428328 -0.97268379 -2.3377211
-7.4334068 -0.94828665 -2.3383169
-7.4073057 -1.0423478 -2.3341467
-7.4107218 -1.0177783 -2.3341467
-7.3930545 -1.0877573 -2.3317637
-7.3926558 -1.0639818 -2.3305721
-7.3819041 -1.1361837 -2.3305721
-7.3856311 -1.1116978 -2.3305721
-7.3576784 -1.2035487 -2.3264019
-7.3633084 -1.1807299 -2.3269975
-7.3401241 -1.2507151 -2.3234231
-7.3479977 -1.2269979 -2.3246148
-7.3189602 -1.2944826 -2.319253
-7.3008256 -1.3412707 -2.3162742
-7.3129787 -1.3171313 -2.3186572
-7.2791252 -1.3846179 -2.312104
-7.2890692 -1.3627952 -2.3138912
-7.2577562 -1.4541962 -2.3097208
-7.2609148 -1.4284843 -2.3091252
-6.7557979 -2.58114 -2.2566991
-6.1079569 -3.5677738 -2.207252
-6.1191363 -3.5485656 -2.207252
-6.0847902 -3.6071413 -2.207252
-6.0917821 -3.584039 -2.2054648
-6.0433526 -3.6614277 -2.204869
-6.0515542 -3.6404538 -2.2036774
-6.0678778 -3.6243627 -2.2054648
-6.0130768 -3.6963773 -2.202486
-6.0220418 -3.6744277 -2.2012944
-5.987462 -3.7341194 -2.2018902
-5.99754 -3.7142866 -2.2012944
-5.9541993 -3.7655435 -2.1983156
-5.969233 -3.7488513 -2.1995072
-5.9123011 -3.8204505 -2.1965287
-5.9274879 -3.8039196 -2.1977201
-5.9377985 -3.7842543 -2.1971242
-5.8795218 -3.8533182 -2.1935496
-5.8931994 -3.8358679 -2.1941454
-5.8561063 -3.8922617 -2.1941454
-5.8651185 -3.8717427 -2.1929541
-5.8283696 -3.9268456 -2.1929541
-5.8422632 -3.9095786 -2.1935496
-5.7802734 -3.9771302 -2.1893795
-5.7958922 -3.9611053 -2.1905711
-5.8089962 -3.9418635 -2.1905711
-5.7529039 -4.0132828 -2.1887839
-5.7677503 -3.9952698 -2.1893795
-5.7206326 -4.045938 -2.1864007
-5.737143 -4.0291405 -2.1875923
-5.6997538 -4.0851393 -2.1881881
-5.7172256 -4.0705347 -2.1899753
-5.6503096 -4.1338868 -2.1846135
-5.6670771 -4.1173716 -2.1858051
-5.6861753 -4.1040182 -2.1881881
-5.6280971 -4.1737013 -2.1864007
-5.6403689 -4.1538839 -2.1858051
-5.5926046 -4.2020993 -2.1828263
-5.6103668 -4.1879354 -2.1846135
-5.565351 -4.2381287 -2.1828263
-5.5771165 -4.2194695 -2.1822305
-5.5168743 -4.2854981 -2.1798475
-5.5363555 -4.2728119 -2.1822305
-5.5504942 -4.2544289 -2.1822305
-5.486083 -4.3186741 -2.1786559
-5.5041366 -4.3049455 -2.1804433
-5.4580808 -4.3540106 -2.1786559
-5.4717317 -4.3368435 -2.1786559
-5.4283662 -4.3879657 -2.1780603
-5.4428868 -4.3699412 -2.1780603
-5.3771558 -4.4325852 -2.1744857
-5.3918252 -4.4147296 -2.1744857
-5.4101114 -4.4013834 -2.1762729
-5.3440228 -4.4635458 -2.1726985
-5.3602648 -4.4470191 -2.1732943
-5.306344 -4.490562 -2.1691241
-5.3270521 -4.4778547 -2.1715071
-5.2714362 -4.5197644 -2.1667409
-5.2922101 -4.5072107 -2.1691241
-5.2263713 -4.5689011 -2.1661453
-5.2414937 -4.5515442 -2.1661453
-5.2601023 -4.5387983 -2.1679325
-5.1932721 -4.5978522 -2.1643579
-5.2076912 -4.5815144 -2.1643579
-5.1648941 -4.6325669 -2.1649537
-5.1794214 -4.6163192 -2.1649537
-5.1263914 -4.6581216 -2.1613793
-5.1452527 -4.6458306 -2.1631665
-5.0800419 -4.7058167 -2.1607835
-5.0990138 -4.6937141 -2.1625707
-5.1103234 -4.672914 -2.1607835
-5.0453696 -4.7346063 -2.1589961
-5.0616164 -4.7200327 -2.1595922
-5.0146904 -4.7670879 -2.1589961
-5.033247 -4.7530541 -2.1601877
-4.9851775 -4.8006959 -2.1595922
-4.9960952 -4.7810512 -2.1578047
-4.9361391 -4.8456535 -2.1584005
-4.954915 -4.8319235 -2.1595922
-4.9678593 -4.8158722 -2.1589961
-4.9047456 -4.8774281 -2.1584005
-4.9186854 -4.8606539 -2.1578047
-4.8731461 -4.9089999 -2.1584005
-4.8866997 -4.8901119 -2.1572092
-4.8333254 -4.9321847 -2.1548259
-4.8528185 -4.9210544 -2.1566133
-4.7826562 -4.9733911 -2.1530387
-4.8075523 -4.9679441 -2.1572092
-4.8218026 -4.9514489 -2.1566133
-4.757452 -5.0133095 -2.1566133
-4.7740512 -4.9975052 -2.1566133
-4.7219434 -5.0389223 -2.1548259
-4.7377491 -5.0240636 -2.1548259
-4.6884198 -5.0701284 -2.1548259
-4.7039065 -5.0531559 -2.1542304
-4.636579 -5.109848 -2.1530387
-4.6542935 -5.0988898 -2.1542304
-4.6724682 -5.0848327 -2.1548259
-4.6013136 -5.1390643 -2.1524429
-4.6230593 -5.1272264 -2.1542304
-4.5676684 -5.1664438 -2.1518474
-4.5889535 -5.157774 -2.1542304
-4.5342107 -5.1958318 -2.1518474
-4.5517702 -5.1829972 -2.1524429
-4.4804015 -5.2347665 -2.1500602
-4.5005612 -5.2250056 -2.1518474
-4.5169554 -5.2108397 -2.1518474
-4.4465041 -5.2635899 -2.1500602
-4.4651699 -5.2502704 -2.1506557
-4.4160881 -5.2965932 -2.1518474
-4.4277978 -5.2768435 -2.1494644
-4.3769398 -5.3191042 -2.1494644
-4.3933363 -5.3030896 -2.1488686
-4.317287 -5.3504729 -2.145294
-4.3376856 -5.3413291 -2.1470811
-4.3553743 -5.3269153 -2.1470811
-4.2778878 -5.3722668 -2.142911
-4.3004565 -5.3640094 -2.145294
-4.2454667 -5.402782 -2.1441026
-4.2633586 -5.3886747 -2.1441026
-4.2046385 -5.4225416 -2.1411238
-4.2261219 -5.4130826 -2.142911
-4.175127 -5.4549165 -2.1435068
-4.1899123 -5.4387493 -2.1423154
-4.1135936 -5.4847713 -2.1393366
-4.1329103 -5.4726238 -2.1399324
-4.1500826 -5.4596124 -2.1399324
-4.0745063 -5.5043712 -2.1369536
-4.0929198 -5.4930749 -2.1375492
-4.0356607 -5.5281892 -2.1357622
-4.057363 -5.5193901 -2.1375492
-3.9822681 -5.5644259 -2.1351662
-4.0008459 -5.5534368 -2.1357622
-4.0182734 -5.5408401 -2.1357622
-3.9419746 -5.5860343 -2.133379
-3.9606102 -5.5751791 -2.1339748
-3.9025469 -5.6066732 -2.1315918
-3.9265976 -5.6015177 -2.1345706
-3.8629186 -5.6247883 -2.1292088
-3.8869805 -5.6197987 -2.1321876
-3.8318691 -5.6575198 -2.1321876
-3.8453217 -5.6391439 -2.1298046
-3.7732253 -5.6899276 -2.1304004
-3.7931333 -5.6789713 -2.130996
-3.8076823 -5.6600251 -2.128613
-3.7353091 -5.7103281 -2.1292088
-3.7563808 -5.7033482 -2.130996
-3.7014277 -5.7368927 -2.1304004
-3.7194326 -5.7252359 -2.1304004
-3.6612484 -5.7580934 -2.1292088
-3.6834381 -5.7529941 -2.1315918
-7.5804191 2.3508804 -2.4765308
-7.5780468 2.3777204 -2.4783182
-7.5844793 2.2985582 -2.4729562
-7.5841169 2.3259363 -2.4753392
-7.6028271 2.2506158 -2.4741478
-7.5916634 2.2747195 -2.4729562
-7.6093931 2.1733372 -2.4693816
-7.6113153 2.2012095 -2.4723604
-7.6100249 2.1218951 -2.4652114
-7.6106715 2.1478651 -2.4675946
-7.6165609 2.0693743 -2.4628286
-7.6207013 2.0976608 -2.466403
-7.6220307 2.0195208 -2.4604454
-7.6230249 2.0454338 -2.4628286
-7.632153 1.9425752 -2.4574666
-7.6330643 1.9697821 -2.4598498
-7.6246443 1.9945989 -2.459254
-7.6330891 1.8918263 -2.4538922
-7.6326642 1.917191 -2.4556797
-7.6436124 1.840713 -2.4532964
-7.6352863 1.8669297 -2.4527009
-7.65131 1.7917794 -2.452105
-7.6474996 1.816251 -2.4527009
-7.649385 1.7407054 -2.4479349
-7.651629 1.7651093 -2.4503179
-7.654839 1.6634262 -2.4443603
-7.6533031 1.6882908 -2.4455516
-7.6479621 1.7123246 -2.4455516
-7.6581597 1.6389714 -2.4437647
-7.660718 1.5613747 -2.4395943
-7.6613832 1.5865957 -2.4413815
-7.6678553 1.4863138 -2.4372113
-7.6674571 1.5376753 -2.4401901
-7.6697874 1.4353609 -2.4348285
-7.6727419 1.4608778 -2.4372113
-7.6732597 1.384784 -2.4330411
-7.6761365 1.4116035 -2.4354241
-7.6858039 1.3358587 -2.4342325
-7.6794519 1.3610055 -2.4336367
-7.6867385 1.2849388 -2.4318497
-7.680553 1.310101 -2.4312539
-7.6874027 1.209314 -2.4282751
-7.6890044 1.2357068 -2.4300623
-7.6869693 1.2601677 -2.4306581
-7.6931639 1.1593608 -2.4276793
-7.6932573 1.184105 -2.4288707
-7.6927376 1.1099094 -2.4252963
-7.6929908 1.1346307 -2.4264879
-7.6921792 1.0591685 -2.4229136
-7.686923 1.083061 -2.4223175
-7.69063 0.98382664 -2.4193389
-7.6950722 1.0089775 -2.4217217
-7.6894035 0.9318797 -2.4169557
-7.6900601 0.95784575 -2.4181473
-7.6914678 0.88177091 -2.4157643
-7.686605 0.9070484 -2.4151688
-7.6930594 0.83301502 -2.4145727
-7.6883574 0.85831004 -2.4139769
-7.6855016 0.75763214 -2.4098067
-7.6773849 0.78119367 -2.4080195
-7.6862864 0.80650294 -2.4115942
-7.6789494 0.70559669 -2.4062324
-7.6784682 0.73123842 -2.4068279
-7.6756229 0.65668309 -2.4038494
-7.6754241 0.68096083 -2.4044452
-7.6758966 0.60680115 -2.4026577
-7.6757455 0.6324091 -2.4032538
-7.671845 0.53243095 -2.3996792
-7.6663256 0.55625409 -2.3984876
-7.6740594 0.58105689 -2.4014664
-7.667501 0.48239732 -2.3972962
-7.675385 0.50845236 -2.400275
-7.6590195 0.43222877 -2.3937216
-7.663342 0.4566274 -2.395509
-7.6540241 0.38237861 -2.3913388
-7.6546912 0.40652415 -2.3919344
-7.6497107 0.30858174 -2.3889556
-7.6467962 0.33252805 -2.38836
-7.6513724 0.35815197 -2.390147
-7.6381879 0.25872287 -2.3847854
-7.6430111 0.28426194 -2.3865726
-7.6282477 0.20907803 -2.3812108
-7.6370544 0.23466656 -2.3841896
-7.6275306 0.15977411 -2.3806152
-7.6307755 0.18515995 -2.3818066
-7.6248941 0.086504482 -2.3794236
-7.6260858 0.13577458 -2.3800194
-7.6158266 0.013290187 -2.3764448
-7.6252937 0.037264749 -2.3794236
-7.62322 0.062535562 -2.3788278
-7.0484862 -0.0098420205 -2.3816705
-7.0463705 -0.056574121 -2.3810301
-7.0503097 -0.033224791 -2.3823106
-7.0303478 -0.12394455 -2.3759084
-7.0458765 -0.10084706 -2.3810301
-7.0291071 -0.07851883 -2.375268
-7.0256119 -0.16924933 -2.3746278
-7.0356069 -0.1461471 -2.3778291
-7.0168347 -0.2131578 -2.3720667
-7.0231519 -0.19126715 -2.3739874
-7.0247798 -0.25881523 -2.375268
-7.018024 -0.23526457 -2.3727071
-7.0011511 -0.32526729 -2.3682253
-7.0116038 -0.30368224 -2.3714266
-7.0182028 -0.28188094 -2.3733473
-6.9950562 -0.37149277 -2.366945
-6.9963102 -0.34707302 -2.366945
-6.988728 -0.41643202 -2.3656645
-6.9900703 -0.39325401 -2.3656645
-6.9766006 -0.4584952 -2.3624632
-6.9761157 -0.43645501 -2.3618231
-6.9698968 -0.52651691 -2.3618231
-6.9639573 -0.50407022 -2.3592622
-6.9730673 -0.48271298 -2.3618231
-6.941802 -0.56950015 -2.3535001
-6.9624457 -0.54918033 -2.3599024
-6.9436507 -0.59283954 -2.3547804
-6.9357543 -0.6592871 -2.3541403
-6.9397893 -0.63645643 -2.3547804
-6.9196839 -0.72484809 -2.350939
-6.9238119 -0.70329523 -2.3515792
-6.9279919 -0.68051612 -2.3522196
-6.8960276 -0.76742136 -2.3445368
-6.9060693 -0.7453621 -2.3470976
-6.8946915 -0.81238008 -2.3458173
-6.8973475 -0.78951168 -2.3458173
-6.8845806 -0.83312613 -2.3432562
-6.8676128 -0.92121536 -2.3413355
-6.8629584 -0.89865285 -2.3387747
-6.8659005 -0.87588936 -2.3387747
-6.8483868 -0.96369743 -2.336854
-6.8646851 -0.9427864 -2.3413355
-6.8421965 -1.0067084 -2.336854
-6.8472018 -0.98547775 -2.3374944
-6.8185158 -1.0494699 -2.3310919
-6.8332 -1.0285449 -2.3349333
-6.8008418 -1.1124629 -2.3285308
-6.8208008 -1.0717684 -2.3330126
-6.7933145 -1.1575419 -2.3285308
-6.8083286 -1.1368818 -2.3323722
-6.7840414 -1.199873 -2.3278906
-6.7894387 -1.1800631 -2.3285308
-6.7684803 -1.2434709 -2.3253298
-6.783968 -1.2218518 -2.3291712
-6.7469311 -1.3065834 -2.3221285
-6.7586727 -1.2856187 -2.3246896
-6.7664027 -1.2650753 -2.3259699
-6.7439265 -1.351243 -2.3240492
-6.7486019 -1.3276938 -2.3240492
-6.7278814 -1.3920528 -2.3214884
-6.7303648 -1.3705329 -2.3208482
-6.7271833 -1.4139636 -2.3227689
-6.6880212 -1.4961755 -2.3157263
-6.7037911 -1.4776055 -2.3195677
-6.7065487 -1.4561337 -2.3189275
-6.6726809 -1.5380572 -2.3138056
-6.6888313 -1.5184379 -2.317647
-6.6607661 -1.5806782 -2.3131652
-6.6656995 -1.5597432 -2.3131652
-6.6433406 -1.6207005 -2.3106043
-6.6557674 -1.6015946 -2.3131652
-6.6198373 -1.6836855 -2.3080435
-6.6232567 -1.6624173 -2.3074031
-6.6268935 -1.6399908 -2.3067629
-6.5978274 -1.7235249 -2.3042021
-6.6123824 -1.7051555 -2.3074031
-6.5828996 -1.7651148 -2.3029215
-6.5905485 -1.7437598 -2.3035619
-6.571363 -1.8075887 -2.3029215
-6.5791502 -1.7862836 -2.3035619
-6.5482435 -1.8690242 -2.3010008
-6.5471106 -1.845243 -2.29844
-6.5492249 -1.8236487 -2.2971594
-6.5233068 -1.9075495 -2.2965193
-6.5405192 -1.8890613 -2.3003607
-6.5027471 -1.9237339 -2.2913973
-6.487258 -1.9883077 -2.2926779
-6.4865618 -1.9645871 -2.2901168
-6.4519744 -2.0442083 -2.2869158
-6.4580112 -2.0250556 -2.2869158
-6.4719305 -2.0058722 -2.2894766
-6.4400768 -2.087539 -2.2875559
-6.4451599 -2.0655928 -2.2869158
-6.41784 -2.1249845 -2.2843547
-6.4262853 -2.1053998 -2.2849951
-6.3964267 -2.165071 -2.2817938
-6.4071641 -2.1450522 -2.2830744
-6.3650036 -2.2215137 -2.2779524
-6.3809061 -2.2045982 -2.2811537
-6.3931789 -2.1863818 -2.2830744
-6.3519149 -2.2643156 -2.2785928
-6.361567 -2.2427576 -2.279233
-6.3304396 -2.3015902 -2.2760317
-6.3358569 -2.281049 -2.2753916
-6.301641 -2.3360503 -2.2709098
-6.3089485 -2.3162427 -2.2709098
-6.3055034 -2.3851671 -2.2779524
-6.3005452 -2.3606937 -2.2734709
-6.2686176 -2.438993 -2.2728305
-6.2762485 -2.4192872 -2.2728305
-6.2922492 -2.4040351 -2.2760317
-6.2452588 -2.4777179 -2.2702696
-6.2600656 -2.4608598 -2.2728305
-6.225615 -2.5165765 -2.2689891
-6.2304077 -2.4945087 -2.2677085
-6.2004733 -2.5531204 -2.2657881
-6.2211866 -2.537554 -2.2702696
-6.1726465 -2.6099665 -2.2645075
-6.18431 -2.5920277 -2.2657881
-6.1941724 -2.573313 -2.2664282
-6.155201 -2.6508477 -2.2645075
-6.1656995 -2.6311653 -2.2651477
-6.1401587 -2.6902304 -2.2651477
-6.1451039 -2.6694188 -2.2638674
-6.1001611 -2.719794 -2.2568247
-6.1208053 -2.7059803 -2.2613063
-6.0754952 -2.7790143 -2.2574651
-6.087646 -2.7614803 -2.2587454
-6.0945644 -2.7415628 -2.2581053
-6.0419617 -2.8109956 -2.2517028
-6.0628052 -2.7975585 -2.2561846
-6.0271077 -2.8515766 -2.2529833
-6.0360374 -2.8326261 -2.2529833
-5.9932008 -2.883045 -2.2472212
-6.0107784 -2.8682837 -2.2504222
-5.9652495 -2.9404428 -2.2472212
-5.9676504 -2.9183567 -2.2446604
-5.9875231 -2.9035127 -2.2485015
-5.9393611 -2.9755073 -2.2446604
-5.9537687 -2.9593647 -2.2465808
-5.9132676 -3.0103617 -2.2420993
-5.9198351 -2.989028 -2.240819
-5.8987532 -3.0510969 -2.24402
-5.9004092 -3.0271945 -2.240819
-5.8574719 -3.1013725 -2.2395384
-5.8677244 -3.0819314 -2.2395384
-5.8740172 -3.0617301 -2.2382579
-5.8378696 -3.1381152 -2.2395384
-5.8443565 -3.117974 -2.2382579
-5.8091679 -3.1712086 -2.2363372
-5.8174362 -3.15204 -2.235697
-5.785255 -3.2068183 -2.2350569
-5.7919793 -3.1868017 -2.2337763
-5.7536354 -3.2632091 -2.2350569
-5.7545171 -3.2385368 -2.2312152
-5.772934 -3.2250614 -2.2344165
-5.7215238 -3.2926793 -2.2305751
-5.7318387 -3.2746894 -2.2305751
-5.6952319 -3.3266931 -2.2286544
-5.7089338 -3.310684 -2.2299349
-5.6671114 -3.3595359 -2.2260935
-5.6782212 -3.3407245 -2.2260935
-5.6362214 -3.414763 -2.2267337
-5.6388035 -3.392154 -2.2235324
-5.6608195 -3.3812253 -2.2280142
-5.6075964 -3.447119 -2.2241728
-5.6238489 -3.4314654 -2.2260935
-5.5803967 -3.4802504 -2.2222521
-5.5961347 -3.4656956 -2.2241728
-5.5584188 -3.5152447 -2.2222521
-5.5614114 -3.4927273 -2.2190509
-5.5206127 -3.5673468 -2.2209716
-5.5365772 -3.5530553 -2.2228923
-5.546114 -3.5346272 -2.2222521
-5.4879527 -3.5966916 -2.2171302
-5.4992256 -3.5794313 -2.2171302
-5.4614563 -3.6299577 -2.2158499
-5.4696698 -3.6106951 -2.2145693
-5.4322567 -3.6599655 -2.2132888
-5.4484515 -3.646044 -2.2152095
-5.3931026 -3.7107365 -2.2120082
-5.4062986 -3.694844 -2.2126486
-5.4263606 -3.6822152 -2.2158499
-5.3643651 -3.7422342 -2.2100875
-5.3829761 -3.7287402 -2.2126486
-5.3478231 -3.7822673 -2.2132888
-5.3479319 -3.7558007 -2.2081668
-5.3116322 -3.8069639 -2.2081668
-5.322022 -3.7891588 -2.2075267
-5.2711124 -3.8564582 -2.2068865
-5.2808061 -3.8367295 -2.205606
-5.2943692 -3.8212304 -2.2062461
-5.2384887 -3.8847744 -2.2036853
-5.2543931 -3.8696294 -2.2049658
-5.2094326 -3.9141963 -2.2017646
-5.230813 -3.9046125 -2.205606
-5.1870608 -3.950053 -2.2030451
-5.2085123 -3.9405956 -2.2068865
-5.1444168 -3.9961736 -2.2011244
-5.1644454 -3.9857817 -2.2043254
-5.1716194 -3.9640229 -2.2017646
-5.1229687 -4.0328288 -2.2030451
-5.1341219 -4.0155463 -2.2024047
-5.0849705 -4.0563736 -2.1979232
-5.0571971 -4.0879345 -2.197283
-5.0795889 -4.0782599 -2.2011244
-5.0118747 -4.1314712 -2.1947222
-5.0328774 -4.1208301 -2.1979232
-5.0457988 -4.1049981 -2.1979232
-4.9821815 -4.1613207 -2.1934416
-5.0017862 -4.1496158 -2.1960025
-4.9624376 -4.1995263 -2.1966429
-4.9661837 -4.1745133 -2.1921611
-4.9308996 -4.2277856 -2.1947222
-4.9376793 -4.2052679 -2.1915209
-4.8786769 -4.264946 -2.1896
-4.8885016 -4.2450171 -2.1876793
-4.9190273 -4.244494 -2.1953623
-4.8461084 -4.2904921 -2.1870391
-4.8709445 -4.2852588 -2.1921611
-4.8112493 -4.315371 -2.1838381
-4.8318539 -4.3065386 -2.1870391
-4.7846828 -4.3476262 -2.1844783
-4.8025374 -4.3363814 -2.186399
-4.7385597 -4.3894901 -2.1825576
-4.762084 -4.3835654 -2.1870391
-4.7751961 -4.3664708 -2.186399
-4.7032056 -4.4135175 -2.1793563
-4.7253633 -4.4064717 -2.1831977
-4.6801 -4.4490185 -2.1819174
-4.7044711 -4.4425802 -2.186399
-4.6499076 -4.4778328 -2.181277
-4.6680579 -4.4671335 -2.1831977
-4.606709 -4.5222626 -2.181277
-4.6230378 -4.5082841 -2.1819174
-4.6391139 -4.4971848 -2.1831977
-4.5720363 -4.5465722 -2.1787162
-4.5943832 -4.5401778 -2.1825576
-4.537241 -4.5706234 -2.1761553
-4.5550523 -4.5582328 -2.1774359
-4.5142612 -4.606595 -2.1793563
-4.5300422 -4.5937395 -2.1799967
-4.470645 -4.6489367 -2.1793563
-4.482594 -4.6321445 -2.178076
-4.498445 -4.6193967 -2.1787162
-4.4318891 -4.6702371 -2.1755152
-4.4499693 -4.6582546 -2.1767955
-4.4050493 -4.7007556 -2.1767955
-4.4184947 -4.6855159 -2.1761553
-4.3686304 -4.7243032 -2.1742346
-4.3920188 -4.7181115 -2.178076
-4.3277316 -4.7694755 -2.1761553
-4.3380308 -4.7524161 -2.1742346
-4.362741 -4.7477708 -2.1787162
-4.2909484 -4.7924271 -2.1735942
-4.3076501 -4.7774205 -2.1735942
-4.2607517 -4.8192935 -2.1735942
-4.2683144 -4.79739 -2.1697528
-4.2245588 -4.8409967 -2.1710334
-4.250998 -4.8405147 -2.1767955
-4.176662 -4.8798866 -2.170393
-4.1932077 -4.8681779 -2.1710334
-4.2072411 -4.8535476 -2.170393
-4.1413946 -4.9024134 -2.1684723
-4.1588554 -4.8900976 -2.1691127
-4.1157165 -4.9363317 -2.1716735
-4.1238966 -4.9146686 -2.1678321
-4.0729179 -4.9496393 -2.1659114
-4.1013966 -4.9506965 -2.1723139
-4.0275979 -4.991457 -2.167192
-4.0468426 -4.9831915 -2.1691127
-4.0609465 -4.9668102 -2.1678321
-3.9940999 -5.0158796 -2.1665516
-4.0118966 -5.0040855 -2.167192
-3.959285 -5.0385871 -2.1652713
-3.975971 -5.0254312 -2.1652713
-3.9255035 -5.0625529 -2.1646309
-3.9411042 -5.0480142 -2.1639907
-3.8947694 -5.0886216 -2.1652713
-3.9095793 -5.0748606 -2.1646309
-3.8414376 -5.1218982 -2.1633506
-3.8584018 -5.1091313 -2.1633506
-3.8755803 -5.0984926 -2.1639907
-3.8046703 -5.139842 -2.1607897
-3.8196669 -5.1263442 -2.1601493
-3.768265 -5.161901 -2.1595092
-3.7876062 -5.1524296 -2.1607897
-3.7150369 -5.1910233 -2.1569483
-3.7335415 -5.1824012 -2.1582286
-3.7520297 -5.1737142 -2.1595092
-3.6805282 -5.215548 -2.1569483
-3.6936035 -5.1993251 -2.1550276
-3.640276 -5.229876 -2.1531069
-3.6608617 -5.2224302 -2.1550276
-3.6041253 -5.2479601 -2.151186
-3.6225865 -5.2375374 -2.1518264
-3.5680363 -5.2679868 -2.1499057
-3.5899062 -5.2645783 -2.1531069
-3.5370996 -5.2956448 -2.1518264
-3.5525265 -5.2807422 -2.1505458
-7.0766034 1.5377734 -2.4469743
-7.0865388 1.5632647 -2.452096
-7.0668015 1.582207 -2.4469743
-7.0826774 1.4912632 -2.4456937
-7.090663 1.5175178 -2.4501753
-7.0903039 1.4451153 -2.4450536
-7.0764513 1.4654622 -2.4418523
-7.0964084 1.3755463 -2.4424927
-7.0939112 1.3981985 -2.4431329
-7.0948086 1.4228331 -2.4450536
-7.0976934 1.3282964 -2.4399316
-7.0916238 1.3502338 -2.4392915
-7.096241 1.3049635 -2.4380109
-7.1049228 1.2348965 -2.4367304
-7.0989227 1.2581202 -2.4360902
-7.105032 1.2119323 -2.4354501
-7.1144757 1.1191863 -2.4335294
-7.1088548 1.1424705 -2.432889
-7.1052303 1.1647999 -2.432889
-7.1121869 1.0718075 -2.4303281
-7.1087847 1.0941463 -2.4303281
-7.1225314 1.02764 -2.4316084
-7.115519 1.0494601 -2.4303281
-7.1196337 0.98033226 -2.4284074
-7.1230788 0.91122246 -2.4264867
-7.1239376 0.93409038 -2.4277673
-7.1247239 0.95696932 -2.4290476
-7.1120362 0.86190844 -2.4207246
-7.1335816 0.88853288 -2.4290476
-7.1174536 0.81596434 -2.4207246
-7.1184721 0.84000659 -2.4220052
-7.1167884 0.77061558 -2.4188039
-7.1236095 0.79526299 -2.4220052
-7.1125441 0.70115036 -2.4149625
-7.1046515 0.72291654 -2.4130418
-7.1230741 0.74740648 -2.4200845
-7.1113777 0.65344417 -2.4130418
-7.1091723 0.67702305 -2.4130418
-7.1059036 0.60794115 -2.4098406
-7.1058459 0.63042808 -2.4104807
-7.1077785 0.58561397 -2.4098406
-7.0939569 0.4923251 -2.4027982
-7.1018233 0.51529491 -2.4059992
-7.1039486 0.53788978 -2.4072797
-7.0969882 0.44650376 -2.4027982
-7.0992498 0.47028652 -2.4040785
-7.0959396 0.40045193 -2.4015176
-7.0984297 0.42296657 -2.4027982
-7.0908084 0.35424158 -2.3989568
-7.0896602 0.37651655 -2.3989568
-7.0844159 0.28577828 -2.3957555
-7.0796971 0.30786723 -2.394475
-7.0975642 0.33222884 -2.4008775
-7.0709643 0.23950972 -2.3906336
-7.0852785 0.26351851 -2.3957555
-7.069788 0.21723595 -2.3899934
-7.0677848 0.14804912 -2.3887129
-7.074832 0.17167002 -2.3912737
-7.0631962 0.080132015 -2.3867922
-7.0647864 0.10358202 -2.3874323
-7.0587425 0.12567362 -2.3855116
-7.0560613 0.012313355 -2.3842313
-7.0578828 0.034491815 -2.3848715
-7.0501509 0.057834506 -2.3823106
-6.5421343 -0.0091349855 -2.3811443
-6.5381708 -0.05249387 -2.379776
-6.5401888 -0.03082083 -2.3804603
-6.5373654 -0.11525331 -2.379776
-6.5377121 -0.093573742 -2.379776
-6.5398531 -0.073053606 -2.3804603
-6.530848 -0.1573303 -2.3777239
-6.5203385 -0.19807522 -2.3743038
-6.5265646 -0.1777432 -2.3763559
-6.5208015 -0.24024706 -2.3749878
-6.5215621 -0.21862173 -2.3749878
-6.5069308 -0.30230623 -2.3708835
-6.5116038 -0.28202656 -2.3722517
-6.5087018 -0.26141721 -2.3708835
-6.4916458 -0.34475771 -2.3660953
-6.5040722 -0.32265407 -2.3701997
-6.489284 -0.38667202 -2.3660953
-6.4792995 -0.42581305 -2.3633592
-6.4843569 -0.40568849 -2.3647273
-6.4725838 -0.46850327 -2.3619909
-6.4777732 -0.44842607 -2.3633592
-6.4509306 -0.52922946 -2.3558347
-6.4619288 -0.50970083 -2.3592548
-6.4492507 -0.57104272 -2.3565187
-6.4528852 -0.55093861 -2.3572028
-6.439816 -0.61214501 -2.3544667
-6.4530396 -0.59181607 -2.3585708
-6.4355116 -0.67413032 -2.3551507
-6.4263797 -0.6527679 -2.3510466
-6.437861 -0.63237202 -2.3544667
-6.4198174 -0.71442652 -2.3510466
-6.4240193 -0.69333512 -2.3517306
-6.4057374 -0.75476813 -2.3476262
-6.4175415 -0.73459023 -2.3510466
-6.4044604 -0.79658157 -2.3489945
-6.4089322 -0.77556628 -2.3496783
-6.3935919 -0.83719289 -2.3469422
-6.40379 -0.81693751 -2.3496783
-6.3796778 -0.89774126 -2.3448901
-6.3826203 -0.87658024 -2.3448901
-6.3720517 -0.93753487 -2.3442059
-6.3731055 -0.9172439 -2.3435221
-6.365694 -0.979774 -2.3442059
-6.3689079 -0.95865893 -2.3442059
-6.3376293 -1.0366919 -2.3373656
-6.3501339 -1.0182641 -2.3407857
-6.3361731 -1.0796477 -2.3394177
-6.3378644 -1.0583218 -2.3387337
-6.3200107 -1.1178013 -2.3359976
-6.3251514 -1.0993659 -2.3366816
-6.3201671 -1.1383172 -2.3373656
-6.2899652 -1.2180892 -2.3318932
-6.2995086 -1.1982776 -2.3339455
-6.3013949 -1.1781355 -2.3332615
-6.2801251 -1.2583137 -2.3312094
-6.2918553 -1.2378352 -2.3339455
-6.268414 -1.2969853 -2.3298411
-6.2742991 -1.2776623 -2.3305252
-6.2488804 -1.3350806 -2.325737
-6.2302742 -1.3937731 -2.3236847
-6.2309523 -1.3733854 -2.3223169
-6.240746 -1.3549981 -2.324369
-6.2174816 -1.4331335 -2.3223169
-6.220367 -1.4120913 -2.3216326
-6.2044396 -1.4723866 -2.3209486
-6.2126951 -1.4537423 -2.3223169
-6.1950665 -1.5113401 -2.3209486
-6.1979566 -1.4914304 -2.3202646
-6.1690702 -1.5690378 -2.3168445
-6.1776156 -1.5505627 -2.3182125
-6.1845474 -1.5305212 -2.3188965
-6.1606283 -1.6093171 -2.3175285
-6.1620135 -1.5890175 -2.3161604
-6.1446619 -1.6476073 -2.3154764
-6.1555424 -1.6286637 -2.3175285
-6.1284575 -1.6857584 -2.3134243
-6.1358275 -1.6659185 -2.3141084
-6.1029568 -1.7419288 -2.310004
-6.1050825 -1.7206613 -2.308636
-6.1158891 -1.7029853 -2.310688
-6.082562 -1.7786665 -2.3065839
-6.1010656 -1.7621365 -2.311372
-6.0694656 -1.8163093 -2.3058996
-6.0805478 -1.7988331 -2.3079519
-6.0500984 -1.8543209 -2.3031635
-6.065208 -1.8369715 -2.3065839
-6.0233955 -1.9084197 -2.2997434
-6.0308247 -1.8911016 -2.3004274
-6.0406532 -1.8722049 -2.3017957
-6.0088177 -1.947747 -2.2990594
-6.0206132 -1.929531 -2.3011115
-5.9928932 -1.984282 -2.2976913
-6.0008836 -1.9660283 -2.2983754
-5.9778214 -2.023381 -2.2970073
-5.9916263 -2.0059345 -2.2997434
-5.9513879 -2.0771537 -2.294271
-5.9561086 -2.057831 -2.293587
-5.9661002 -2.0403266 -2.2949553
-5.9250894 -2.1121619 -2.2894828
-5.9395161 -2.0939643 -2.2922189
-5.916657 -2.1301279 -2.2887988
-5.8980803 -2.1864481 -2.2894828
-5.9066839 -2.1685569 -2.2901669
-5.8781762 -2.2235231 -2.2874308
-5.8833718 -2.2043869 -2.2867467
-5.8499527 -2.276099 -2.2846944
-5.8675961 -2.2617652 -2.2887988
-5.8777924 -2.2456868 -2.2901669
-5.8382225 -2.3162322 -2.2860627
-5.8437209 -2.2971928 -2.2853785
-5.8161736 -2.3510683 -2.2833264
-5.8221936 -2.3310695 -2.2826424
-5.8078213 -2.3914411 -2.2860627
-5.8104992 -2.370039 -2.2840106
-5.7729087 -2.4409463 -2.2812743
-5.7840147 -2.424252 -2.2826424
-5.7881312 -2.4046268 -2.2812743
-5.7324266 -2.4687726 -2.2716978
-5.7457676 -2.4519622 -2.2737498
-5.7202444 -2.5062506 -2.2730658
-5.7298131 -2.4890175 -2.2737498
-5.6919255 -2.5377798 -2.2682776
-5.7033072 -2.5214064 -2.2696457
-5.6673026 -2.5923014 -2.2682776
-5.6805525 -2.5768144 -2.2703297
-5.6920481 -2.5604961 -2.2716978
-5.6521482 -2.6296368 -2.2689617
-5.6535554 -2.6087186 -2.2662256
-5.6248555 -2.6612608 -2.2648573
-5.6348906 -2.6443737 -2.2655416
-5.6007786 -2.6942694 -2.2621212
-5.6193919 -2.6815181 -2.2662256
-5.5662284 -2.7437539 -2.2587008
-5.5731335 -2.7254264 -2.2580168
-5.5855222 -2.7085714 -2.2593851
-5.5500751 -2.7804825 -2.2593851
-5.5621481 -2.7647066 -2.2607532
-5.521955 -2.8111498 -2.2552807
-5.5429897 -2.7987521 -2.2600691
-5.5070248 -2.8484776 -2.256649
-5.5214562 -2.8327732 -2.2587008
-5.472784 -2.8976908 -2.2539127
-5.4873548 -2.882148 -2.2559648
-5.5030484 -2.8683691 -2.2587008
-5.4511585 -2.9302409 -2.2525446
-5.4636545 -2.9148688 -2.2539127
-5.4304729 -2.9644802 -2.2518606
-5.4430647 -2.9491956 -2.2532287
-5.4095736 -2.9985747 -2.2511766
-5.4156733 -2.9797544 -2.2498085
-5.3718333 -3.0466676 -2.2477565
-5.3851824 -3.0306821 -2.2491245
-5.3930368 -3.012831 -2.2484405
-5.3542142 -3.0812964 -2.2484405
-5.365499 -3.0653939 -2.2491245
-5.3277121 -3.1120179 -2.2457044
-5.3374634 -3.0952635 -2.2457044
-5.3091216 -3.147315 -2.2463882
-5.3130503 -3.12588 -2.2436521
-5.270628 -3.1932645 -2.2429681
-5.2838554 -3.1786268 -2.2443361
-5.292202 -3.1610489 -2.2436521
-5.2514987 -3.2282176 -2.2436521
-5.2557578 -3.2068696 -2.240916
-5.225759 -3.2590785 -2.2416
-5.2311783 -3.2396774 -2.239548
-5.2004128 -3.2888353 -2.239548
-5.2139025 -3.2744815 -2.240916
-5.1648631 -3.337466 -2.2381797
-5.1784863 -3.3232534 -2.239548
-5.1904855 -3.3079793 -2.240232
-5.1369157 -3.3666291 -2.2354436
-5.1427417 -3.3473969 -2.2333915
-5.1088071 -3.3955693 -2.2327075
-5.116312 -3.3774328 -2.2313395
-5.0811381 -3.4234006 -2.2299714
-5.0965528 -3.4105575 -2.2320235
-5.0443387 -3.4707687 -2.2286031
-5.0598726 -3.4580851 -2.2306554
-5.0744228 -3.4433975 -2.2320235
-5.0171962 -3.5000455 -2.2265511
-5.0365 -3.4887393 -2.2299714
-4.9929552 -3.5312858 -2.225867
-5.0061765 -3.5157893 -2.2265511
-4.9660864 -3.5593035 -2.223815
-4.9879603 -3.5513146 -2.2286031
-4.9325786 -3.6087797 -2.224499
-4.944519 -3.5924027 -2.224499
-4.9557796 -3.5768521 -2.224499
-4.9061522 -3.6383193 -2.2231309
-4.921216 -3.6242595 -2.224499
-4.8862004 -3.6713302 -2.224499
-4.8962035 -3.6548386 -2.223815
-4.8519225 -3.6948383 -2.2197106
-4.8635077 -3.6795759 -2.2197106
-4.8102965 -3.7366292 -2.2169745
-4.8264747 -3.7249448 -2.2190268
-4.840292 -3.710062 -2.2197106
-4.793448 -3.7734284 -2.2203946
-4.80232 -3.7560341 -2.2190268
-4.7586975 -3.7960997 -2.2156065
-4.7779632 -3.7869689 -2.2190268
-4.7399311 -3.831476 -2.2183428
-4.7496791 -3.8133843 -2.2169745
-4.6869817 -3.8636496 -2.2108181
-4.7055845 -3.8528481 -2.2135544
-4.7176657 -3.8380458 -2.2135544
-4.6633754 -3.8950412 -2.2115021
-4.6748199 -3.8783555 -2.2108181
-4.6366916 -3.9238598 -2.2108181
-4.6482396 -3.9072533 -2.2101343
-4.6112552 -3.9537208 -2.2108181
-4.627203 -3.9408445 -2.2121863
-4.567431 -3.9928546 -2.208082
-4.5820656 -3.9789181 -2.208766
-4.600234 -3.9694159 -2.2115021
-4.5436597 -4.0227194 -2.208766
-4.5492201 -4.0022187 -2.2053459
-4.5091939 -4.0444474 -2.2046618
-4.528892 -4.0365148 -2.208082
-4.4801993 -4.0709558 -2.2032938
-4.5013366 -4.0644164 -2.2073979
-4.4422951 -4.1150498 -2.2039778
-4.4565825 -4.1023474 -2.2046618
-4.4715495 -4.0888143 -2.2053459
-4.4128866 -4.1410804 -2.2026098
-4.4272499 -4.1284771 -2.2032938
-4.3846912 -4.1681952 -2.2019255
-4.3984895 -4.1536322 -2.2019255
-4.3549762 -4.1938157 -2.2005577
-4.3722024 -4.1840124 -2.2026098
-4.3118353 -4.2327938 -2.1991894
-4.3339214 -4.2263446 -2.2032938
-4.3410449 -4.2082348 -2.2005577
-4.2870774 -4.2632003 -2.2005577
-4.2991118 -4.2483902 -2.1998734
-4.2528372 -4.2841272 -2.1971374
-4.2670207 -4.2700005 -2.1971374
-4.2211361 -4.3074741 -2.1950853
-4.2372875 -4.2968683 -2.1964533
-4.1816545 -4.3484211 -2.1957693
-4.1966033 -4.3366122 -2.1964533
-4.2062716 -4.3193679 -2.1944013
-4.1553111 -4.3787847 -2.1971374
-4.1646161 -4.3595452 -2.1944013
-4.1212916 -4.3979497 -2.1937172
-4.1376653 -4.3877153 -2.1950853
-4.0920329 -4.4251866 -2.1937172
-4.1041236 -4.4088407 -2.1923492
-4.0501456 -4.4635553 -2.1937172
-4.0621033 -4.4501309 -2.193033
-4.076838 -4.436636 -2.193033
-4.0154381 -4.4847178 -2.1909809
-4.0335846 -4.4734664 -2.1923492
-3.9871805 -4.5098596 -2.1909809
-4.0025783 -4.4987154 -2.1916652
-3.9542673 -4.5312648 -2.1889288
-3.972203 -4.523057 -2.1909809
-3.9105885 -4.5690141 -2.1889288
-3.9392192 -4.544353 -2.1889288
-6.617887 0.84659564 -2.4283431
-6.6133313 0.8671397 -2.427659
-6.6087117 0.88766026 -2.4269748
-6.6196246 0.8022331 -2.4269748
-6.6169281 0.82418036 -2.4269748
-6.6284018 0.75989813 -2.4283431
-6.6239786 0.78165448 -2.427659
-6.6143608 0.71621203 -2.4215026
-6.6194205 0.73897648 -2.4242387
-6.619061 0.65250307 -2.4208186
-6.6188478 0.67348474 -2.4215026
-6.614831 0.69407773 -2.4208186
-6.6213708 0.60841882 -2.4201345
-6.604465 0.56504089 -2.4126101
-6.6101456 0.58644974 -2.4153461
-6.602356 0.52193475 -2.410558
-6.6043348 0.54413497 -2.411926
-6.5995622 0.4580138 -2.4078219
-6.5980906 0.47874501 -2.4078219
-6.6021762 0.49989709 -2.409874
-6.5948801 0.41491386 -2.4050858
-6.5880394 0.37178913 -2.4016654
-6.5924668 0.3928183 -2.4037175
-6.5959339 0.32951871 -2.4037175
-6.5873594 0.34984043 -2.4009814
-6.5866585 0.28642699 -2.3996134
-6.5894275 0.30844355 -2.4009814
-6.5778351 0.2228063 -2.395509
-6.5826941 0.2448262 -2.3975611
-6.5753798 0.1802206 -2.394141
-6.5766239 0.20208232 -2.394825
-6.5670109 0.13755937 -2.3907208
-6.5683975 0.15938146 -2.3914046
-6.5548739 0.074365094 -2.3859324
-6.5639873 0.09623944 -2.3893528
-6.5580158 0.1167587 -2.3873007
-6.5440097 0.011419786 -2.3818283
-6.5495796 0.032007743 -2.3838804
-6.5475583 0.053711593 -2.3831964
-6.0892067 -0.1073523 -2.3781257
-6.0827999 -0.14653666 -2.3759434
-6.0851145 -0.126403 -2.3766708
-6.081759 -0.18475202 -2.3759434
-6.0860338 -0.16574585 -2.3773983
-6.0729918 -0.22374833 -2.3730333
-6.0792861 -0.20379536 -2.3752158
-6.0575371 -0.28142783 -2.3679411
-6.0639753 -0.26263914 -2.3701236
-6.0529022 -0.30027243 -2.3664863
-6.0384569 -0.35980892 -2.3621213
-6.0414767 -0.33988711 -2.3628488
-6.0392222 -0.37783903 -2.3628488
-6.0189767 -0.45468292 -2.357029
-6.0315247 -0.43657818 -2.3613937
-6.032866 -0.41762722 -2.3613937
-6.0230079 -0.4750798 -2.3592114
-6.0144582 -0.53254443 -2.3577564
-6.0161014 -0.5136466 -2.3577564
-6.0053349 -0.55075651 -2.3548465
-5.9847512 -0.62691242 -2.3497543
-5.9941049 -0.608859 -2.352664
-5.9942365 -0.58879614 -2.3519366
-5.9827523 -0.64570981 -2.3497543
-5.9687543 -0.70327973 -2.3468442
-5.9729047 -0.68369442 -2.3475718
-5.9622397 -0.74157852 -2.3461168
-5.9683647 -0.72225177 -2.3475718
-5.9511533 -0.79828233 -2.3446617
-5.9480906 -0.77885783 -2.3424795
-5.9366498 -0.83539879 -2.3410244
-5.9430795 -0.81621438 -2.3424795
-5.9331269 -0.87295485 -2.3417518
-5.9235249 -0.91171771 -2.340297
-5.9265156 -0.89206934 -2.340297
-5.909153 -0.96660286 -2.3381145
-5.9151096 -0.9294551 -2.3381145
-5.9007759 -1.0054584 -2.3373868
-5.9059153 -0.98619318 -2.3381145
-5.8925071 -1.0421901 -2.3366594
-5.8937383 -1.0243827 -2.335932
-5.8854656 -1.0812479 -2.3366594
-5.8928709 -1.0613575 -2.3381145
-5.8693285 -1.1366304 -2.3344772
-5.8767257 -1.1178569 -2.335932
-5.8802085 -1.0993887 -2.335932
-5.8655195 -1.1752415 -2.335932
-5.8622746 -1.1533211 -2.3330221
-5.856195 -1.2116939 -2.3352046
-5.859973 -1.1932913 -2.3352046
-5.8446045 -1.2487066 -2.3337495
-5.8432436 -1.2281712 -2.3315673
-5.8232584 -1.3027196 -2.3301122
-5.8236837 -1.283618 -2.3286574
-5.8386116 -1.2676862 -2.3330221
-5.8129086 -1.3398792 -2.3293848
-5.8191371 -1.3210077 -2.3301122
-5.8023224 -1.3769594 -2.3286574
-5.8048062 -1.3582981 -2.3279297
-5.7863173 -1.4116223 -2.3257475
-5.7871003 -1.3925649 -2.3242924
-5.7704377 -1.4676498 -2.3250198
-5.7714071 -1.4486057 -2.323565
-5.7870293 -1.4321454 -2.3279297
-5.7464199 -1.5011151 -2.3192
-5.7330074 -1.5372279 -2.317745
-5.7362728 -1.5177313 -2.3170176
-5.7175722 -1.5727359 -2.3155627
-5.7227559 -1.5537668 -2.3155627
-5.6914635 -1.6244787 -2.3111978
-5.7004051 -1.6066068 -2.3126528
-5.6754899 -1.6596304 -2.3090155
-5.6827521 -1.6413172 -2.3097429
-5.6613808 -1.6941885 -2.3075604
-5.6720343 -1.6779809 -2.3097429
-5.6411138 -1.7289693 -2.3039229
-5.6227927 -1.7814949 -2.3031955
-5.6280532 -1.7648034 -2.3031955
-5.6338749 -1.7461303 -2.3031955
-5.6037645 -1.8164498 -2.3002856
-5.6133051 -1.7989939 -2.3017404
-5.5922408 -1.8516237 -2.3002856
-5.5816021 -1.8892682 -2.301013
-5.5825362 -1.8689754 -2.2988307
-5.5617895 -1.9411759 -2.3002856
-5.5608177 -1.9212583 -2.2973757
-5.572114 -1.9055887 -2.2995582
-5.5433655 -1.9543021 -2.2951934
-5.5239997 -2.0083888 -2.2951934
-5.5285287 -1.990393 -2.2944658
-5.5077777 -2.0417609 -2.2937384
-5.5124159 -2.0238068 -2.293011
-5.4888873 -2.076268 -2.2915559
-5.497128 -2.0596685 -2.2922835
-5.467339 -2.1272316 -2.2908285
-5.4819722 -2.0944583 -2.2915559
-5.4461846 -2.1606965 -2.2879186
-5.4598804 -2.1463034 -2.2908285
-5.4252086 -2.1930287 -2.2850084
-5.4376397 -2.1771033 -2.2871909
-5.4074879 -2.226599 -2.2835536
-5.418292 -2.210062 -2.2850084
-5.3742528 -2.2723835 -2.2784612
-5.391674 -2.2598104 -2.2828262
-5.3624854 -2.3094506 -2.2799163
-5.3718281 -2.2923865 -2.2806437
-5.3461618 -2.3423512 -2.2791889
-5.3569121 -2.3270299 -2.2806437
-5.3241186 -2.3737907 -2.276279
-5.3332534 -2.3578072 -2.2770064
-5.2909212 -2.4201396 -2.271914
-5.3086777 -2.4081244 -2.276279
-5.2802505 -2.4566128 -2.2740965
-5.2879415 -2.4400134 -2.2740965
-5.2592235 -2.4882712 -2.271914
-5.2653294 -2.4709439 -2.2711866
-5.2430458 -2.522181 -2.271914
-5.2509432 -2.505698 -2.271914
-5.2119093 -2.5690997 -2.2690041
-5.2283912 -2.5353889 -2.2690041
-5.1935444 -2.6018674 -2.2682765
-5.1983557 -2.5838811 -2.2668216
-5.1733136 -2.6336615 -2.2668216
-5.1836815 -2.6173313 -2.267549
-5.1512341 -2.6644468 -2.2646391
-5.1633568 -2.649051 -2.2660942
-5.1343913 -2.6967595 -2.2646391
-5.1428385 -2.6806159 -2.2646391
-5.1066275 -2.7450399 -2.2639117
-5.111939 -2.7272279 -2.2624567
-5.0773482 -2.7717102 -2.2588196
-5.0942206 -2.7601829 -2.2624567
-5.0544558 -2.8017299 -2.2566371
-5.0681286 -2.7885323 -2.2588196
-5.0316925 -2.8537545 -2.2588196
-5.044374 -2.8388815 -2.2602744
-5.0500164 -2.8212018 -2.2588196
-5.0136628 -2.8853126 -2.2588196
-4.9852729 -2.9119928 -2.2544546
-4.9927855 -2.8953803 -2.253727
-4.9647617 -2.9431739 -2.253727
-4.9761004 -2.927639 -2.2544546
-4.9346871 -2.9897313 -2.2529995
-4.9456525 -2.9751728 -2.253727
-4.9565744 -2.9605775 -2.2544546
-4.9173193 -3.0003669 -2.2493622
-4.8845983 -3.0463114 -2.2479072
-4.8957281 -3.0319326 -2.2486346
-4.8574886 -3.0719635 -2.2442698
-4.8702703 -3.0586708 -2.2457247
-4.8241024 -3.1172709 -2.2428148
-4.8385758 -3.1051185 -2.2449973
-4.8451643 -3.0879006 -2.2435424
-4.8038716 -3.1483588 -2.2428148
-4.8153005 -3.1342661 -2.2435424
-4.781889 -3.178283 -2.2420874
-4.7902946 -3.1622188 -2.2413599
-4.7571907 -3.205142 -2.2399051
-4.765687 -3.1891458 -2.2391775
-4.7225666 -3.2493727 -2.2384501
-4.7327518 -3.23452 -2.2384501
-4.7449937 -3.2198536 -2.2391775
-4.7014847 -3.2798021 -2.2384501
-4.710804 -3.2631326 -2.2377226
-4.6741233 -3.3057909 -2.2355402
-4.6850605 -3.2902727 -2.2355402
-4.6517458 -3.3340087 -2.2348125
-4.6667495 -3.3226197 -2.236995
-4.6159315 -3.3771138 -2.2333577
-4.6301193 -3.3639779 -2.2348125
-4.6376429 -3.3472359 -2.2333577
-4.5910335 -3.4046323 -2.2319026
-4.6067982 -3.3927042 -2.2340851
-4.5665731 -3.4311726 -2.2304478
-4.5818081 -3.4201536 -2.2326303
-4.5398726 -3.457206 -2.2282653
-4.5507126 -3.442925 -2.2282653
-4.5064783 -3.5006242 -2.2282653
-4.5204024 -3.4887266 -2.2297201
-4.530468 -3.4725835 -2.2289927
-4.4823132 -3.5285013 -2.2275376
-4.4948449 -3.5155492 -2.2282653
-4.4550657 -3.5538871 -2.2253554
-4.4647474 -3.538717 -2.224628
-4.4262276 -3.5778968 -2.2224455
-4.4453311 -3.5690322 -2.2260828
-4.388804 -3.6178508 -2.2209907
-4.4007769 -3.6032772 -2.2209907
-4.4164109 -3.5929611 -2.2231729
-4.3624887 -3.6437285 -2.2195356
-4.3774161 -3.6316214 -2.2209907
-4.341713 -3.6742306 -2.2209907
-4.352447 -3.6586139 -2.220263
