# .PCD v0.7 - Point Cloud Data file format
VERSION 0.7
FIELDS x y z
SIZE 4 4 4
TYPE F F F
COUNT 1 1 1
WIDTH 1505
HEIGHT 1
VIEWPOINT 0 0 0 1 0 0 0
POINTS 1505
DATA ascii
-23.476622 4.1606894 -2.2243905
-24.00749 4.0950489 -2.2721369
-27.351404 4.30268 -2.5831392
-26.780573 4.3039298 -2.5305622
-27.767166 4.5520263 -2.6251264
-26.917847 4.0565228 -2.5396657
-27.318287 4.2046852 -2.5786805
-26.990105 3.8941364 -2.5441244
-27.046688 3.9890864 -2.550627
-27.113325 3.7333477 -2.5534136
-26.96146 3.7987769 -2.5402231
-27.026875 3.6301603 -2.5441244
-27.928102 3.2956216 -2.6236401
-28.019827 3.0340252 -2.6293993
-28.049191 3.1313455 -2.6331151
-27.957607 2.8447585 -2.6217821
-28.031713 2.941298 -2.629585
-27.58946 2.5351164 -2.5848112
-27.493734 2.3522091 -2.5744073
-27.521914 2.4417343 -2.5777514
-27.442841 2.1694336 -2.5682764
-27.338249 2.2524142 -2.5591731
-26.6042 1.8463483 -2.4880178
-27.354986 1.9848261 -2.5588014
-27.316843 2.0683498 -2.555829
-25.902086 1.6296178 -2.4213214
-26.536352 1.7578884 -2.4811437
-19.921654 1.1242577 -1.8615545
-25.346777 1.5103115 -2.3689303
-25.20299 1.2590873 -2.3542535
-25.1134 1.3337184 -2.3462646
-26.039652 1.0504137 -2.4313538
-25.331951 1.1015835 -2.3655863
-25.330147 1.1856751 -2.365772
-26.045895 0.88223398 -2.4313538
-26.096554 0.97059351 -2.4363699
-27.727028 -0.038716111 -3.2424631
-27.630814 -0.22184314 -3.2313128
-27.679073 -0.13043845 -3.2368879
-27.579742 -0.48622897 -3.2257373
-27.60504 -0.3951087 -3.2285249
-27.622036 -0.30855268 -3.2303834
-27.464819 -0.66163659 -3.2127285
-27.516512 -0.57158661 -3.2185359
-27.434307 -0.83340091 -3.2097085
-27.456648 -0.74774897 -3.2120316
-27.344978 -1.007476 -3.1999519
-27.387877 -0.91812128 -3.2045979
-27.2388 -1.2654905 -3.1888013
-27.276379 -1.1813776 -3.1927505
-27.317667 -1.0971941 -3.1971643
-27.198069 -1.4444325 -3.1850846
-27.246593 -1.3516493 -3.1901953
-27.158432 -1.6182687 -3.1816001
-27.171581 -1.5286446 -3.1825294
-27.019196 -1.7756745 -3.1665006
-27.113859 -1.6963565 -3.176954
-27.000549 -2.0396638 -3.1665006
-27.004845 -1.9546843 -3.1662683
-26.951399 -1.8657198 -3.1592991
-26.937323 -2.2099173 -3.1606929
-26.967894 -2.1271601 -3.1634808
-26.880936 -2.3801467 -3.1558146
-26.894217 -2.2961917 -3.1565115
-26.819521 -2.5493643 -3.1504717
-26.851566 -2.4625895 -3.1532593
-26.764177 -2.803591 -3.1469872
-26.768904 -2.7190864 -3.1465228
-26.795565 -2.6320491 -3.1486135
-26.680365 -2.9691129 -3.1393213
-26.705864 -2.8823252 -3.1411796
-26.489 -3.1211166 -3.1191111
-26.607752 -3.0456824 -3.1318874
-26.422953 -3.2864654 -3.1137681
-26.433704 -3.1988308 -3.1137681
-26.468941 -3.5505197 -3.12306
-26.481934 -3.4676106 -3.1232924
-22.335546 -2.8493667 -2.6331365
-26.425791 -3.7186081 -3.1207373
-26.441914 -3.631496 -3.1212018
-26.368494 -3.8796582 -3.1167881
-26.421844 -3.8027415 -3.1216664
-21.433826 -3.2989814 -2.5360346
-21.643045 -3.2577481 -2.5594969
-21.086155 -3.4492149 -2.4986339
-21.210648 -3.4011946 -2.5121074
-21.437092 -3.3684607 -2.5376606
-21.062817 -3.5889833 -2.4986339
-21.082438 -3.5204294 -2.4995632
-21.059412 -3.7247148 -2.500957
-21.078197 -3.663573 -2.5018861
-26.088636 -4.792872 -3.1019208
-26.029728 -5.040812 -3.100527
-21.362766 -4.0635748 -2.5430036
-26.057829 -4.8718824 -3.1000621
-25.965466 -5.2025557 -3.0968101
-25.983467 -5.111887 -3.0968101
-25.922541 -5.3635821 -3.0956485
-25.931475 -5.2805371 -3.0947194
-25.86211 -5.5254703 -3.0926287
-21.486881 -4.5162535 -2.5676274
-25.782675 -5.7678356 -3.0896087
-25.823948 -5.6919446 -3.0923963
-25.839764 -5.6103597 -3.092164
-25.750698 -5.9355526 -3.0903056
-25.799299 -5.8567233 -3.0937903
-25.707966 -6.1008029 -3.0898411
-25.738613 -6.0227175 -3.0912347
-25.66334 -6.2607937 -3.089144
-25.679018 -6.1792083 -3.0886796
-25.591293 -6.5088749 -3.0879827
-25.611618 -6.4284382 -3.0879827
-25.642435 -6.3458629 -3.089144
-25.523743 -6.6674685 -3.0849628
-25.379139 -6.5445971 -3.0649848
-25.483992 -6.8331852 -3.0854273
-25.506512 -6.7486386 -3.0854273
-25.443165 -6.9986658 -3.085892
-25.473904 -6.9163361 -3.0868213
-25.369083 -7.2409382 -3.0851951
-24.723763 -6.9681649 -3.0038896
-25.421053 -7.0785584 -3.085892
-25.302727 -7.3990393 -3.0828722
-25.353844 -7.3228078 -3.0861242
-25.270962 -7.5624261 -3.0847304
-25.29269 -7.4824395 -3.0844982
-25.222151 -7.7304459 -3.0849628
-25.264757 -7.6519451 -3.0870533
-25.165216 -7.9732099 -3.0870533
-25.175495 -7.8943458 -3.0854273
-25.192049 -7.8078766 -3.0842657
-8.303196 -2.6914654 -1.0207324
-8.2785788 -2.741086 -1.0198032
-8.2965879 -2.7181542 -1.0209646
-8.2489281 -2.7921081 -1.0184094
-8.2600241 -2.7653706 -1.0186417
-8.1922379 -2.8592551 -1.0146925
-8.214324 -2.8380427 -1.0163187
-8.2269583 -2.8135099 -1.0167834
-8.1637392 -2.9101903 -1.0135311
-8.1757221 -2.882334 -1.0137634
-8.1340914 -2.9573531 -1.0121373
-8.1470804 -2.93313 -1.0126019
-8.1023111 -3.0035677 -1.0105112
-8.1154366 -2.9794695 -1.0109757
-8.0747805 -3.0544274 -1.0095819
-8.0861969 -3.029743 -1.0098143
-8.0308256 -3.1246324 -1.0077236
-8.0424557 -3.1001017 -1.0079558
-8.0534735 -3.0769339 -1.0081881
-7.9951539 -3.1719639 -1.0058651
-8.0143223 -3.150466 -1.0070266
-7.9671364 -3.2205508 -1.0049359
-7.981461 -3.1955893 -1.0054004
-7.9296417 -3.2651265 -1.0028453
-7.9514623 -3.2433145 -1.0042391
-7.8857107 -3.3342977 -1.0012192
-7.8998103 -3.3110449 -1.0016837
-7.9156761 -3.288496 -1.0023806
-7.8543005 -3.3825958 -1.0000576
-7.8709555 -3.35887 -1.0007545
-7.8274331 -3.4294879 -0.99936062
-7.8418121 -3.4064648 -0.9998253
-7.8033094 -3.4791532 -0.99912834
-7.8123837 -3.4538195 -0.99889606
-7.7551017 -3.5472891 -0.99726993
-7.7662067 -3.5229096 -0.99726993
-7.7808595 -3.5001214 -0.99773455
-7.7248278 -3.5939415 -0.99634069
-7.7360797 -3.5696573 -0.99634069
-7.6924796 -3.6395061 -0.9951793
-7.7056751 -3.6161633 -0.99541157
-7.6616564 -3.6856601 -0.99425006
-7.6767826 -3.6632845 -0.99471462
-7.613451 -3.7528887 -0.99262393
-7.6305585 -3.7315679 -0.99332076
-7.6464648 -3.7079785 -0.99378544
-7.5855069 -3.8001952 -0.99215937
-7.5991864 -3.7772315 -0.99239165
-7.5519567 -3.8445952 -0.99099785
-7.5664372 -3.820426 -0.99123013
-7.5234427 -3.8914585 -0.99053323
-7.5380731 -3.8673952 -0.99076557
-7.4787192 -3.959779 -0.989604
-7.4953265 -3.9368041 -0.99006855
-7.5111809 -3.9150734 -0.99053323
-7.448442 -4.0038695 -0.98890704
-7.4609852 -3.980448 -0.98890704
-7.4224315 -4.0518847 -0.98890704
-7.4386182 -4.0304389 -0.98937172
-7.3926373 -4.0978045 -0.98844248
-7.4037328 -4.0736036 -0.9882102
-7.3470497 -4.1669235 -0.98774564
-7.3590956 -4.1415644 -0.98751336
-7.3772731 -4.1213284 -0.9882102
-7.3190022 -4.2120123 -0.98751336
-7.3356466 -4.1909699 -0.98797792
-7.2899323 -4.2581882 -0.98728096
-7.3084302 -4.2382526 -0.98797792
-7.2639923 -4.3061872 -0.98751336
-7.2765198 -4.2810674 -0.98728096
-7.2189226 -4.3736591 -0.98704869
-7.2292237 -4.3489084 -0.98658407
-7.2479668 -4.3292332 -0.98728096
-7.1871443 -4.4181037 -0.98658407
-7.1983652 -4.3921771 -0.98611951
-7.1584644 -4.4644227 -0.98658407
-7.1707659 -4.4408674 -0.98635179
-7.125236 -4.5061283 -0.98588723
-7.1359916 -4.4816093 -0.98542255
-7.1052237 -4.5597224 -0.98728096
-7.1061115 -4.5288386 -0.98542255
-19.254042 -12.532404 -2.6865659
-7.1402841 -4.7457905 -1.0026128
-19.091475 -12.602861 -2.6751831
-7.1119742 -4.7916698 -1.0028453
-7.1286426 -4.7704096 -1.0030775
-7.0680733 -4.863204 -1.0033098
-7.0816779 -4.8398538 -1.0030775
-7.0993314 -4.8174582 -1.0033098
-7.0414085 -4.9121561 -1.0040066
-7.056026 -4.8876472 -1.0037744
-7.0176506 -4.9632587 -1.0051682
-7.0291948 -4.9365358 -1.0044713
-6.9879413 -5.0084114 -1.0054004
-6.9987864 -4.9829769 -1.0047036
-6.9402609 -5.0776424 -1.0056328
-6.9538469 -5.0522642 -1.0051682
-6.9696832 -5.0303946 -1.0051682
-6.9025388 -5.1188059 -1.0049359
-6.9274721 -5.101779 -1.0060974
-6.8845339 -5.172812 -1.0070266
-6.8927908 -5.1452188 -1.0058651
-12.126543 -9.4198761 -1.7956899
-12.134059 -9.3647442 -1.7924377
-12.149282 -9.3123693 -1.7901146
-12.102917 -9.527482 -1.8012651
-12.132792 -9.4894094 -1.8012651
-12.077483 -9.5725002 -1.8021944
-16.129908 -13.03845 -2.4254591
-12.080609 -9.6991835 -1.8117187
-15.844594 -13.061275 -2.4012997
-15.900115 -13.018729 -2.4031579
-16.045721 -13.053959 -2.4189546
-15.555617 -12.992685 -2.3701713
-15.774433 -13.086892 -2.3968861
-15.486556 -13.105698 -2.3724942
-15.546659 -13.068332 -2.3750498
-15.345803 -13.157593 -2.3638992
-15.390863 -13.107919 -2.3641315
-15.075222 -13.178781 -2.3415983
-15.183336 -13.18472 -2.3515871
-15.26679 -13.173295 -2.3580916
-14.877596 -13.171847 -2.3237109
-14.98751 -13.185401 -2.3343968
-14.712374 -13.196022 -2.3111668
-14.774517 -13.168243 -2.3144188
-14.48865 -13.165186 -2.2893305
-14.550584 -13.138237 -2.2925825
-14.245029 -13.195659 -2.2707462
-14.347795 -13.207348 -2.280503
-14.413504 -13.179804 -2.2839875
-14.081293 -13.213974 -2.2582021
-14.14889 -13.194052 -2.2623835
-13.907846 -13.221141 -2.2440317
-14.002163 -13.222683 -2.2521622
-13.714864 -13.207332 -2.226609
-13.807953 -13.213626 -2.2349718
-13.434353 -13.188085 -2.2015204
-13.50788 -13.172585 -2.2063987
-13.60681 -13.190522 -2.2161555
-13.284118 -13.21013 -2.1908348
-13.365114 -13.207431 -2.1973391
-13.131357 -13.22797 -2.1796842
-13.206043 -13.215265 -2.1847949
-12.953898 -13.218854 -2.1643522
-13.048366 -13.23184 -2.1731796
-12.728224 -13.235832 -2.1473942
-12.800137 -13.22718 -2.1525049
-12.88736 -13.233869 -2.1601708
-12.563588 -13.239262 -2.1343853
-12.63075 -13.221945 -2.1383345
-12.428543 -13.262857 -2.1255579
-12.521934 -13.278666 -2.1343853
-12.306589 -13.308533 -2.1197503
-12.387199 -13.306908 -2.1260226
-12.101858 -13.33713 -2.1060445
-12.177534 -13.340779 -2.1123166
-12.244557 -13.325191 -2.1162658
-11.973385 -13.372702 -2.0990756
-12.047924 -13.361809 -2.1039538
-11.847021 -13.400046 -2.0916419
-11.915468 -13.392442 -2.096288
-11.721058 -13.431367 -2.0846727
-11.765818 -13.397468 -2.0851376
-11.489545 -13.42404 -2.0663211
-11.567957 -13.430023 -2.0728254
-11.64913 -13.438642 -2.0797944
-11.341085 -13.425114 -2.0551705
-11.393263 -13.396514 -2.0565643
-11.223624 -13.461454 -2.0495951
-11.276074 -13.438302 -2.0514538
-11.069563 -13.452357 -2.0372834
-11.134387 -13.440049 -2.0410001
-10.841374 -13.435863 -2.0189314
-10.91484 -13.440289 -2.024739
-10.987012 -13.437854 -2.0298498
-10.704886 -13.443435 -2.0096395
-10.78917 -13.457458 -2.0170732
-10.583487 -13.468548 -2.003135
-10.645345 -13.455191 -2.0063872
-10.457338 -13.486379 -1.9957014
-10.517895 -13.471981 -1.9987212
-10.301163 -13.458747 -1.9819957
-10.385821 -13.481398 -1.9901261
-10.09523 -13.460258 -1.967593
-10.180515 -13.480604 -1.9754913
-10.238441 -13.469111 -1.9785111
-9.930089 -13.414851 -1.9517964
-10.032715 -13.464827 -1.9636438
-9.7952251 -13.417842 -1.9427367
-9.8773165 -13.436502 -1.9501704
-9.5954943 -13.407791 -1.9281017
-9.6863384 -13.445273 -1.9378582
-9.7378607 -13.427641 -1.9397168
-9.472003 -13.422444 -1.9211327
-9.5198774 -13.400719 -1.9222943
-9.3102283 -13.375728 -1.9058008
-9.3898802 -13.395205 -1.9130021
-9.1877651 -13.378286 -1.8979025
-9.2512884 -13.375518 -1.9018517
-9.0566235 -13.37155 -1.8886104
-9.1254473 -13.382421 -1.8941857
-8.8804893 -13.391552 -1.8790861
-8.9248486 -13.362029 -1.8790861
-9.0068092 -13.388399 -1.8869843
-8.7755098 -13.415502 -1.8746724
-8.8197975 -13.391182 -1.875137
-8.6856623 -13.462026 -1.873511
-8.7484732 -13.466322 -1.8779247
-8.4725466 -13.324885 -1.8465639
-8.5679235 -13.381849 -1.858179
-8.3547487 -13.422465 -1.848887
-8.4203186 -13.428345 -1.853533
-8.4730701 -13.41862 -1.8558559
-8.2284193 -13.411796 -1.8400595
-8.2746906 -13.392639 -1.8409886
-8.0864143 -13.368048 -1.8270506
-8.167367 -13.411862 -1.8363426
-7.9965591 -13.419678 -1.8268182
-8.0461292 -13.401602 -1.8279798
-7.8073487 -13.392851 -1.8128802
-7.8668103 -13.392579 -1.8163646
-7.901763 -13.355833 -1.8147386
-7.6781564 -13.368917 -1.8028913
-7.7582693 -13.405277 -1.8112541
-7.5724788 -13.378866 -1.7977806
-7.6626844 -13.439569 -1.8091635
-7.5284872 -13.503828 -1.8080019
-7.5699015 -13.478377 -1.8077697
-7.3747487 -13.531869 -1.8021944
-7.4172244 -13.508633 -1.8021944
-7.4577036 -13.481787 -1.8017298
-7.2233357 -13.460187 -1.7863979
-7.3052688 -13.510817 -1.7961545
-7.0991459 -13.436296 -1.7771058
-7.1749291 -13.477051 -1.7854686
-7.0030632 -13.464237 -1.7747828
-7.0665379 -13.482636 -1.7801257
-6.8707976 -13.525527 -1.7740859
-6.9159713 -13.509178 -1.7747828
-6.9283218 -13.429128 -1.7671168
-6.6554065 -13.313752 -1.7406346
-6.7669163 -13.43115 -1.758754
-6.5324712 -13.281585 -1.7308778
-6.6373806 -13.382642 -1.7469066
-6.3877325 -13.2019 -1.7150813
-6.4253788 -13.168147 -1.7134552
-6.309896 -13.366797 -1.7285548
-6.2944112 -13.22025 -1.7122936
-6.3513827 -13.232647 -1.7164751
-6.2920275 -13.555015 -1.7476035
-6.1844592 -13.54549 -1.7413313
-6.2726746 -13.625237 -1.754108
-6.1009898 -13.600709 -1.7431897
-6.1771822 -13.649173 -1.7520173
-5.9940262 -13.706746 -1.7494619
-6.0298438 -13.67149 -1.7473712
-6.063077 -13.630698 -1.7445836
-5.8912339 -13.718818 -1.7459774
-5.950913 -13.732015 -1.7501588
-5.7832932 -13.704319 -1.739473
-5.8434362 -13.726292 -1.7445836
-5.6945572 -13.747879 -1.7401698
-5.7562065 -13.767407 -1.7450483
-5.5929637 -13.870946 -1.7489973
-5.6297755 -13.836747 -1.7469066
-5.6649194 -13.798778 -1.7443513
-5.4898853 -13.880027 -1.7455128
-5.539041 -13.862622 -1.7457451
-5.3558335 -13.79388 -1.7304132
-5.4288583 -13.852817 -1.7399375
-5.2612786 -13.806841 -1.7278578
-5.2903652 -13.753162 -1.7232119
-5.1023107 -13.800739 -1.7206566
-5.1751523 -13.856319 -1.7297163
-5.2221608 -13.849286 -1.7308778
-5.0185881 -13.833517 -1.7208889
-5.0551896 -13.799029 -1.7185658
-4.9220762 -13.853395 -1.7192627
-4.9662452 -13.839731 -1.7194951
-4.8148823 -13.834237 -1.7129906
-4.8745747 -13.857546 -1.7178689
-4.6850386 -13.889229 -1.7141521
-4.7248054 -13.86316 -1.7127583
-4.7744617 -13.850339 -1.713223
-4.5783634 -13.859919 -1.7069508
-4.627543 -13.862426 -1.7090415
-4.4820657 -13.876746 -1.7053246
-4.5385447 -13.893908 -1.7092738
-4.3983817 -13.915998 -1.7067184
-4.4451003 -13.911572 -1.7078799
-4.2493963 -13.916525 -1.7016078
-4.3114443 -13.945257 -1.7069508
-4.3368597 -13.872869 -1.6997495
-4.1658502 -13.956274 -1.703234
-4.1981907 -13.905086 -1.6985879
-4.0728598 -13.97335 -1.7020724
-4.1298552 -13.995966 -1.7064861
-3.9809077 -13.993628 -1.7013755
-4.0286975 -13.994414 -1.7030016
-3.8430667 -14.009453 -1.6988202
-3.889185 -14.004967 -1.6997495
-3.9312577 -13.995277 -1.6999817
-3.7403259 -13.998168 -1.6944064
-3.7977724 -14.036203 -1.7004462
-3.6573572 -14.050866 -1.697891
-3.7054522 -14.044423 -1.6985879
-3.5621536 -14.056861 -1.6958003
-3.6062756 -14.035352 -1.6946388
-3.4102526 -14.010674 -1.686276
-3.4509211 -13.986391 -1.6846498
-3.5020728 -14.004386 -1.6881343
-3.3177118 -14.034917 -1.6865082
-3.3619187 -14.014179 -1.6853467
-3.2356908 -14.08259 -1.6897604
-3.2704482 -14.031728 -1.6848822
-3.1433878 -14.097374 -1.6890635
-3.1968663 -14.128117 -1.6939418
-3.0153644 -14.161871 -1.6932451
-3.0506055 -14.109612 -1.6881343
-3.0932145 -14.092198 -1.6872052
-2.9166307 -14.146029 -1.6890635
-2.9594476 -14.116837 -1.6867405
-2.8345437 -14.211323 -1.6946388
-2.8685198 -14.14978 -1.6883667
-2.744591 -14.239083 -1.6958003
-2.7877831 -14.222594 -1.6948711
-2.6117122 -14.286267 -1.6983556
-2.6547649 -14.268228 -1.6971941
-2.6983659 -14.239829 -1.6948711
-2.5207806 -14.310661 -1.6992849
-2.5531266 -14.21815 -1.6892959
-2.4336245 -14.357978 -1.7030016
-2.4775016 -14.328297 -1.7004462
-2.3418131 -14.379274 -1.7036985
-2.388505 -14.365553 -1.7030016
-2.2033756 -14.399129 -1.7034662
-2.2498851 -14.383892 -1.7025371
-2.296942 -14.388523 -1.7039309
-2.1137969 -14.436644 -1.7062539
-2.1581278 -14.40598 -1.7034662
-2.0343423 -14.530297 -1.7157781
-2.0729411 -14.474675 -1.7099707
-1.938104 -14.525411 -1.7136875
-1.9775416 -14.473983 -1.7083446
-1.8186868 -14.727008 -1.7352915
-1.8687621 -14.730749 -1.7364531
-1.8935097 -14.559336 -1.7169397
-1.7337449 -14.803253 -1.7429575
-1.7759699 -14.762232 -1.738776
-1.6485925 -14.908913 -1.754108
-1.6936265 -14.88787 -1.7522495
-1.5613251 -15.006183 -1.7643292
-1.606837 -14.961421 -1.7596831
-1.4054524 -14.895885 -1.7496942
-1.4657394 -15.029791 -1.7659553
-1.5155708 -15.024848 -1.7659553
-1.3147912 -14.967973 -1.7571278
-1.3655025 -14.975401 -1.7585217
-1.2026479 -14.786078 -1.7348269
-1.2496612 -14.758257 -1.7320393
-1.105858 -14.74184 -1.7287871
-1.1544865 -14.768 -1.7322716
-0.96921957 -14.827102 -1.7376146
-1.02408 -14.944873 -1.7517849
-1.0556873 -14.727593 -1.7266964
-0.88267618 -14.989711 -1.7559664
-0.93099219 -15.00669 -1.7582893
-0.78721106 -15.020885 -1.7589864
-0.83274442 -14.988587 -1.7555017
-0.6932925 -15.093125 -1.7668846
-0.73778462 -15.031349 -1.7599155
-0.54686487 -15.057397 -1.7620063
-0.59455866 -15.065529 -1.7631676
-0.64298379 -15.089387 -1.7661875
-0.44873083 -15.03083 -1.7585217
-0.49634129 -15.041258 -1.7599155
-0.35123786 -15.015541 -1.756431
-0.40118897 -15.020251 -1.7571278
-0.25456822 -15.035373 -1.7585217
-0.30164316 -15.026554 -1.7575924
-0.11009818 -15.019245 -1.756431
-0.1600095 -15.028729 -1.7575924
-0.2072783 -15.032125 -1.7580571
-0.013103457 -15.017657 -1.7561986
-0.062895991 -15.015545 -1.7559664
0.081200838 -15.007509 -1.7550372
0.034038778 -15.001733 -1.7543403
0.17785116 -14.984823 -1.7524818
0.13086186 -14.99524 -1.7536433
0.32198527 -14.996328 -1.754108
0.27734104 -14.989273 -1.7531787
0.22775336 -14.998055 -1.754108
0.42082229 -14.97202 -1.7515527
0.37136731 -14.981277 -1.7524818
0.51515818 -14.977022 -1.7524818
0.46779305 -14.968639 -1.7513204
0.61113548 -14.955519 -1.7503911
0.56459689 -14.969275 -1.7517849
0.75446606 -14.944997 -1.7499266
0.70798016 -14.957214 -1.751088
0.65811551 -14.953526 -1.7503911
0.85118562 -14.943778 -1.7503911
0.80162501 -14.946519 -1.7503911
0.94691664 -14.926076 -1.7489973
0.90025872 -14.932942 -1.7494619
1.0408185 -14.921812 -1.7492296
0.99380428 -14.923027 -1.7489973
1.1864525 -14.908948 -1.7489973
1.1394567 -14.910621 -1.748765
1.09348 -14.926015 -1.7501588
1.2802737 -14.903177 -1.7492296
1.2332852 -14.905147 -1.7489973
1.3783534 -14.886448 -1.7483004
1.3319343 -14.894661 -1.748765
1.4730862 -14.863398 -1.7466743
1.424925 -14.880067 -1.7480682
1.5665323 -14.82987 -1.7438867
1.5157671 -14.845129 -1.7450483
1.7046382 -14.800633 -1.7422606
1.6592388 -14.815786 -1.7434222
1.613759 -14.830799 -1.7445836
1.8018011 -14.781115 -1.7413313
1.7541777 -14.798845 -1.7427251
1.8931224 -14.75768 -1.7399375
1.8482292 -14.775381 -1.7413313
1.9844818 -14.73565 -1.738776
1.9389567 -14.747721 -1.739473
2.12642 -14.701788 -1.73715
2.0816128 -14.71823 -1.7383114
2.0331874 -14.708956 -1.7364531
2.220125 -14.679894 -1.7362207
2.1717241 -14.68914 -1.7364531
2.3124001 -14.649554 -1.7343624
2.2684898 -14.670488 -1.7359885
2.4808874 -14.809313 -1.7559664
2.4140608 -14.693542 -1.7413313
2.3641298 -14.661417 -1.7366853
2.6367116 -15.123256 -1.7952253
2.5573578 -14.945454 -1.7731566
2.7948201 -15.440167 -1.8349488
2.7113006 -15.267455 -1.8133447
2.8778698 -15.618854 -1.8572497
10.069054 -12.13254 -1.8437762
10.029624 -12.16258 -1.843544
10.206001 -12.137202 -1.8544621
10.121127 -12.117619 -1.8463316
10.276908 -12.066789 -1.853533
10.244081 -12.105079 -1.8544621
10.292325 -11.927981 -1.8423824
10.285833 -11.996449 -1.8479577
10.27645 -11.680981 -1.8193846
10.277618 -11.756579 -1.8261214
10.28753 -11.842796 -1.8344842
10.272366 -11.525398 -1.8054465
10.272277 -11.602533 -1.8121834
10.281346 -11.38658 -1.7940638
10.286649 -11.464657 -1.8012651
10.291648 -11.251058 -1.7831457
10.278327 -11.311587 -1.7873271
10.324662 -11.071844 -1.7703691
10.312781 -11.128996 -1.7743182
10.301381 -11.190902 -1.7787319
10.350381 -10.960537 -1.7629354
10.326771 -11.004588 -1.7647939
10.366535 -10.832808 -1.7534111
10.351085 -10.888721 -1.7568955
10.371289 -10.698603 -1.7424929
10.366069 -10.764416 -1.7476035
10.437205 -10.561817 -1.7364531
10.409082 -10.603458 -1.7376146
10.378022 -10.642184 -1.7383114
10.4865 -10.47918 -1.7336655
10.518597 -10.376368 -1.7278578
10.515553 -10.43875 -1.7327362
10.562615 -10.286051 -1.7241411
10.538762 -10.327526 -1.7255349
10.620647 -10.145765 -1.7176367
10.604474 -10.194223 -1.720192
10.589168 -10.247292 -1.7232119
10.661375 -10.0538 -1.7136875
10.639824 -10.096815 -1.7153136
10.665009 -9.9278965 -1.7039309
10.681312 -10.009391 -1.7118291
10.736212 -9.8655367 -1.7050923
10.729685 -9.9253664 -1.7092738
10.805108 -9.7426319 -1.7013755
10.783276 -9.7845373 -1.7027694
10.764218 -9.8290815 -1.7046278
10.832383 -9.6377449 -1.695568
10.822559 -9.6934929 -1.6990525
10.869022 -9.5453081 -1.6916189
10.847727 -9.5905085 -1.6932451
10.897264 -9.4494991 -1.6867405
10.88682 -9.5038729 -1.6899928
10.952666 -9.3148584 -1.6813977
10.93995 -9.363431 -1.6839529
10.928541 -9.4133101 -1.6867405
10.988246 -9.2235012 -1.6776807
10.969838 -9.2669506 -1.679307
11.018516 -9.128273 -1.6732671
11.003514 -9.1742916 -1.6753578
11.052587 -9.0399961 -1.6697825
11.030267 -9.0797243 -1.6707118
11.087718 -8.8892918 -1.6618843
11.087564 -8.9465351 -1.6660657
11.060919 -8.9857597 -1.6665303
11.116872 -8.7984953 -1.6579353
11.115589 -8.8544168 -1.6618843
11.146796 -8.7025681 -1.6537538
11.139742 -8.756671 -1.657006
11.182376 -8.6178074 -1.6509662
11.163095 -8.6589842 -1.6521276
11.218512 -8.472188 -1.6439971
11.198261 -8.5153561 -1.6451585
11.193622 -8.5705585 -1.648643
11.24591 -8.3793898 -1.640048
11.229183 -8.4249821 -1.641674
11.268084 -8.2893476 -1.6358665
11.251565 -8.3318005 -1.6372603
11.295479 -8.194603 -1.6319174
11.28091 -8.2382498 -1.6335436
11.341451 -8.0659094 -1.6275038
11.32393 -8.1041489 -1.6284329
11.314721 -8.1544304 -1.6309882
11.36542 -7.9699841 -1.6233222
11.340326 -8.0056496 -1.6233222
11.39567 -7.8848519 -1.6205347
11.372473 -7.9217496 -1.6207669
11.42802 -7.7956667 -1.6177469
11.411931 -7.84027 -1.6191409
11.467955 -7.6655374 -1.613101
11.460297 -7.7126184 -1.615424
11.434366 -7.7474699 -1.6151917
11.495656 -7.5771093 -1.6100811
11.485361 -7.6250772 -1.6121719
11.521029 -7.4875627 -1.6068288
11.52072 -7.5389471 -1.6100811
11.544433 -7.4000177 -1.6035767
11.53448 -7.4448676 -1.605435
11.596014 -7.2741652 -1.600789
11.573104 -7.3105597 -1.600789
11.563881 -7.3584948 -1.6028796
11.609391 -7.1813068 -1.5963752
11.608692 -7.2313986 -1.5993952
11.656763 -7.1041527 -1.5963752
11.636081 -7.1417785 -1.5966076
11.668818 -7.011333 -1.5919615
11.65863 -7.0551562 -1.5935876
11.699109 -6.8748097 -1.5868509
11.69334 -6.9236889 -1.589174
11.675434 -6.9654799 -1.5898708
11.728322 -6.7932024 -1.5849925
11.710354 -6.8320155 -1.5854571
11.754693 -6.7074771 -1.5826695
11.737006 -6.7463527 -1.5831342
11.782177 -6.6226697 -1.5805788
11.767064 -6.6656203 -1.5815079
11.826056 -6.4987416 -1.5780234
11.802703 -6.5369606 -1.5777912
11.795985 -6.5817504 -1.5796496
11.856174 -6.4186344 -1.5766296
11.827231 -6.4510942 -1.5754682
11.883352 -6.3344617 -1.5747713
11.863394 -6.3717628 -1.5747713
11.901144 -6.2455907 -1.5717514
11.899025 -6.2922349 -1.5740744
11.948174 -6.1247187 -1.5701252
11.924269 -6.1624832 -1.5696607
11.918944 -6.2072539 -1.571519
11.962646 -6.0349073 -1.5668731
11.954253 -6.0778613 -1.5682669
11.992473 -5.953115 -1.5657115
11.974442 -5.9937396 -1.5659437
12.019956 -5.8703165 -1.5643177
12.003987 -5.9119 -1.5647824
12.062195 -5.7507877 -1.5626916
12.044068 -5.7886543 -1.5626916
12.032976 -5.8299274 -1.5636208
12.091076 -5.6664472 -1.56153
12.079404 -5.709908 -1.5624592
12.136437 -5.5924058 -1.5626916
12.117826 -5.6326213 -1.5626916
12.165909 -5.5135808 -1.5619947
12.147557 -5.553894 -1.5619947
12.214639 -5.3949389 -1.56153
12.194001 -5.4316692 -1.5610654
12.185937 -5.474021 -1.562227
12.25194 -5.3196683 -1.5619947
12.232462 -5.354404 -1.56153
12.285124 -5.2375154 -1.5617625
12.274084 -5.2784386 -1.5624592
12.315956 -5.1594548 -1.56153
12.299686 -5.1981211 -1.56153
12.363956 -5.0380869 -1.5612978
12.351743 -5.0784154 -1.5617625
12.349512 -5.1254382 -1.5636208
12.380613 -4.9543986 -1.5594394
12.377881 -4.9984756 -1.5610654
12.395708 -4.8678102 -1.5573487
12.386883 -4.9118176 -1.5582778
12.40464 -4.7790918 -1.554561
12.402525 -4.8230782 -1.5561872
12.442502 -4.657012 -1.5536318
12.432565 -4.7003541 -1.5543288
12.417737 -4.7393889 -1.5543288
12.461126 -4.5724587 -1.552238
12.457071 -4.6178994 -1.5536318
12.484004 -4.4920559 -1.5515411
12.471696 -4.5319324 -1.5517734
12.509004 -4.4100242 -1.5510765
12.489473 -4.4473014 -1.5503796
12.49437 -4.2704706 -1.5441074
12.512813 -4.3207245 -1.5480566
12.529186 -4.3704815 -1.5517734
12.519802 -4.1890669 -1.5438752
12.480235 -4.2194715 -1.5406229
12.556031 -4.1112218 -1.5450367
12.546826 -4.1518955 -1.5455012
12.546375 -4.0185409 -1.5406229
12.548807 -4.0628314 -1.5424814
12.536934 -3.8832269 -1.5348154
12.539838 -3.9273431 -1.5366738
12.538107 -3.9725053 -1.5380676
12.53323 -3.7935548 -1.5313309
12.549071 -3.843822 -1.5348154
12.553007 -3.7136045 -1.5308663
12.552698 -3.7564394 -1.5322601
12.582452 -3.6341169 -1.5315632
12.569067 -3.6730714 -1.5313309
12.601448 -3.5089061 -1.5297048
12.594187 -3.5495553 -1.5301694
12.598255 -3.5934622 -1.5320278
12.616177 -3.4253747 -1.5287756
12.600918 -3.4661391 -1.528311
12.62075 -3.3392596 -1.5266849
12.625547 -3.3830051 -1.5285434
12.649177 -3.2618799 -1.527614
12.631179 -3.2995939 -1.5266849
12.670811 -3.1357086 -1.5264525
12.678239 -3.1798491 -1.5285434
12.663774 -3.2208948 -1.5280787
12.717301 -3.0625453 -1.5297048
12.68446 -3.0968289 -1.5269172
12.698647 -2.969089 -1.5250589
12.702261 -3.0143936 -1.5266849
12.719493 -2.8874633 -1.5252911
12.692425 -2.9256108 -1.5232003
12.72721 -2.7610223 -1.5229681
12.723315 -2.8067155 -1.523665
12.72025 -2.847975 -1.5243618
12.754026 -2.6830456 -1.5241295
12.74165 -2.72227 -1.523665
12.770633 -2.6028571 -1.5241295
12.764799 -2.6411395 -1.5243618
12.812952 -2.5230918 -1.5271494
12.777246 -2.5601037 -1.5238973
12.799481 -2.3930457 -1.5227357
12.795378 -2.4362199 -1.5232003
12.77986 -2.4748955 -1.5222712
12.829903 -2.3153996 -1.5245942
12.799121 -2.3513875 -1.5218065
12.793703 -2.2236557 -1.5185543
12.815994 -2.2690322 -1.5220389
12.815634 -2.1423023 -1.5194836
12.800625 -2.1834521 -1.5185543
12.817946 -2.0164058 -1.5173929
12.813509 -2.0569794 -1.5176251
12.816419 -2.1010659 -1.5187865
12.834629 -1.9341816 -1.5178574
12.834033 -1.9776398 -1.5185543
12.844886 -1.8509762 -1.5176251
12.830815 -1.8924017 -1.5166959
12.85823 -1.7705042 -1.5178574
12.850636 -1.8106136 -1.5176251
12.888426 -1.6487591 -1.5194836
12.895 -1.6907903 -1.5208774
12.854186 -1.7265328 -1.5166959
12.883028 -1.5635808 -1.5176251
12.876081 -1.6038007 -1.5173929
12.875094 -1.4783143 -1.5155344
12.872359 -1.5189881 -1.5157666
12.886348 -1.3953542 -1.5157666
12.885598 -1.4385201 -1.5162313
12.899148 -1.2715917 -1.5157666
12.902994 -1.3129137 -1.5166959
12.888692 -1.3546561 -1.5155344
12.904904 -1.1903369 -1.5155344
12.901317 -1.2286214 -1.5155344
12.934287 -1.1065855 -1.5180898
12.920653 -1.1485916 -1.5169282
12.929103 -1.0243543 -1.5166959
12.917903 -1.0643147 -1.5157666
12.95237 -0.89890313 -1.518322
12.947336 -0.94170558 -1.5180898
12.940352 -0.98207551 -1.5176251
12.965693 -0.81800413 -1.5192512
12.95513 -0.8582077 -1.518322
12.974669 -0.7344833 -1.5197158
12.974146 -0.77762365 -1.5199481
12.963271 -0.64988619 -1.5178574
12.961165 -0.69060826 -1.5178574
12.968821 -0.52768314 -1.5178574
12.957176 -0.56798828 -1.5166959
12.953343 -0.60859835 -1.5164636
12.964093 -0.44138935 -1.5169282
12.964543 -0.48445156 -1.5171604
12.970582 -0.36003563 -1.5173929
12.967402 -0.40072069 -1.5171604
12.970651 -0.27622604 -1.5171604
12.963706 -0.31909007 -1.5164636
12.952841 -0.15147361 -1.5148375
12.958261 -0.19225375 -1.5155344
12.961565 -0.23303376 -1.5159991
12.965468 -0.067887649 -1.5162313
12.949281 -0.11074641 -1.5143729
12.947757 0.015821634 -1.5141406
12.965622 -0.024892237 -1.5162313
12.961308 0.097279578 -1.5157666
12.957566 0.05880034 -1.5153021
12.973641 0.22419353 -1.5173929
12.966337 0.18331853 -1.5164636
12.960914 0.14025769 -1.5157666
12.981852 0.30820522 -1.5185543
12.976845 0.26502889 -1.5178574
12.989587 0.3900592 -1.5197158
12.990748 0.34925181 -1.5197158
12.969365 0.51410586 -1.5178574
12.970917 0.4733552 -1.5178574
12.990208 0.43320191 -1.5199481
12.971727 0.59812266 -1.5185543
12.98942 0.55805242 -1.5204127
12.965612 0.681768 -1.518322
12.963722 0.64083838 -1.5178574
12.970854 0.76606822 -1.5194836
12.97134 0.72293699 -1.5192512
12.96092 0.89041096 -1.5192512
12.965785 0.84755212 -1.5194836
12.970366 0.80693436 -1.5197158
12.95473 0.97634566 -1.5192512
12.975892 0.93240339 -1.5213419
12.976243 1.0577236 -1.5225035
12.963659 1.0157137 -1.520645
12.971121 1.1416671 -1.5227357
12.964747 1.1000742 -1.5215743
12.971427 1.2672902 -1.5241295
12.96941 1.2259685 -1.5234326
12.979134 1.1857625 -1.5241295
12.984706 1.3532953 -1.5266849
12.97331 1.3086303 -1.5248264
12.967797 1.4362444 -1.5257556
12.982121 1.3965565 -1.5269172
12.980222 1.5202315 -1.528311
12.980727 1.4812638 -1.5278463
12.982477 1.6492814 -1.5304017
12.973796 1.6067748 -1.5287756
12.986942 1.5646902 -1.5297048
12.896911 1.5972528 -1.5197158
12.967619 1.7325586 -1.5299371
12.975264 1.6897999 -1.5301694
12.892797 1.722562 -1.5211096
12.884358 1.6802417 -1.5194836
12.899427 1.6410121 -1.520645
12.975833 1.8190157 -1.5322601
12.975888 1.7751712 -1.5315632
12.908947 1.8096395 -1.5243618
12.89292 1.7661128 -1.5218065
12.970044 1.9013746 -1.5329571
12.977919 1.860903 -1.5331893
12.891096 1.8920991 -1.523665
12.900909 1.8521585 -1.5241295
12.979094 1.9884012 -1.5355123
12.969899 1.9429984 -1.5336539
12.91037 1.9778727 -1.5273818
12.902768 1.9352376 -1.5257556
12.965291 2.1138558 -1.5362092
12.979713 2.0743704 -1.5371383
12.972428 2.0314281 -1.5355123
12.902184 2.105885 -1.5287756
12.900891 2.0640759 -1.5278463
12.899815 2.020057 -1.5269172
12.973298 2.1989236 -1.5387646
12.972302 2.1568551 -1.5378354
12.907901 2.1924803 -1.5310985
12.904928 2.1502886 -1.5299371
12.972123 2.2873325 -1.5403907
12.977678 2.2439668 -1.5401583
12.911079 2.2788985 -1.5331893
12.912693 2.2350514 -1.5324924
12.975377 2.4142172 -1.5434107
12.978988 2.37273 -1.542946
12.970738 2.3291314 -1.5410875
12.916046 2.3635464 -1.5355123
12.917542 2.3219061 -1.5348154
12.969269 2.4998386 -1.544572
12.975107 2.4587085 -1.5443398
12.913784 2.4938128 -1.5380676
12.916127 2.4498737 -1.5373708
12.921807 2.4089167 -1.5371383
12.968441 2.5866413 -1.5464306
12.974552 2.545507 -1.5461981
12.923183 2.5799661 -1.5410875
12.923428 2.5378189 -1.5401583
12.961193 2.6723399 -1.5475919
12.971931 2.6297417 -1.5478243
12.921818 2.6665726 -1.542946
12.922802 2.6221302 -1.5420167
12.985425 2.8075528 -1.5536318
12.974751 2.76261 -1.5513089
12.978009 2.7183435 -1.5506119
12.927643 2.7549312 -1.5457336
12.936234 2.7143068 -1.5457336
12.970904 2.8922098 -1.5540965
12.976542 2.8483315 -1.5536318
12.930187 2.8831308 -1.5492181
12.931419 2.8407929 -1.5482889
12.924747 2.7967951 -1.5464306
12.977644 2.9794302 -1.5571164
12.969501 2.9347017 -1.5550256
12.935947 2.974611 -1.552238
12.928304 2.9277515 -1.5501473
12.979398 3.0682013 -1.5596716
12.977365 3.0247009 -1.5582778
12.924735 3.0576615 -1.5531672
12.942016 3.0188498 -1.5540965
12.970004 3.2001507 -1.562227
12.965104 3.1533637 -1.5603687
12.974946 3.1126196 -1.5603687
12.935288 3.1915851 -1.5580455
12.935603 3.1485732 -1.5568841
12.932449 3.1024249 -1.5552579
12.968898 3.2864544 -1.5645499
12.967595 3.2428064 -1.5631561
12.939442 3.2813933 -1.5610654
12.941978 3.2388005 -1.5601363
12.968553 3.3756342 -1.5671053
12.961777 3.3304291 -1.5650146
12.933359 3.3688903 -1.5629239
12.944461 3.3259797 -1.5629239
12.96951 3.4654713 -1.5698929
12.967485 3.4189017 -1.5682669
12.931128 3.4552155 -1.5652469
12.93808 3.4135571 -1.5647824
12.972017 3.5998995 -1.5743067
12.969851 3.5554554 -1.5726806
12.96623 3.5082722 -1.5708221
12.948776 3.5496783 -1.5701252
12.934939 3.5022283 -1.5671053
12.958697 3.6840448 -1.5754682
12.970206 3.6433182 -1.5754682
12.927482 3.6776156 -1.5717514
12.935147 3.635906 -1.5712868
12.92545 3.5894067 -1.5687314
12.95305 3.7754681 -1.5777912
12.965497 3.7324963 -1.5777912
12.930163 3.7687974 -1.5750035
12.933044 3.7231538 -1.573842
12.963334 3.867008 -1.5819726
12.960179 3.8217585 -1.5801142
12.932204 3.860173 -1.5782558
12.932837 3.8161561 -1.576862
12.961682 4.0023956 -1.5863863
12.957782 3.9541748 -1.5842956
12.954926 3.9088595 -1.5824372
12.93441 3.9964535 -1.5831342
12.930493 3.9483147 -1.5810434
12.932645 3.9070556 -1.5798818
12.952613 4.0914001 -1.588477
12.942648 4.043582 -1.5856894
12.936746 4.0888715 -1.5866187
12.936255 4.0440631 -1.5849925
12.945554 4.1788063 -1.5908
12.951049 4.1357012 -1.5898708
12.928972 4.1784372 -1.5889416
12.929512 4.1313105 -1.5873156
12.943963 4.2732911 -1.5940523
12.933513 4.222332 -1.5910324
12.918696 4.2674503 -1.5910324
12.920294 4.2180166 -1.5894063
12.944483 4.4091835 -1.5991629
12.933798 4.3602476 -1.596143
12.934241 4.315196 -1.5945169
12.915509 4.4018302 -1.5956784
12.908567 4.3542514 -1.5931231
12.916531 4.3117924 -1.5924262
12.937468 4.5027733 -1.6019505
12.94106 4.4559622 -1.6005567
12.908543 4.4952316 -1.598466
12.908352 4.447227 -1.5966076
12.917482 4.5895457 -1.6031121
12.93263 4.5466871 -1.6031121
12.915609 4.5888805 -1.6028796
12.909348 4.5410342 -1.6003244
12.923872 4.6834841 -1.6075258
12.918764 4.6332207 -1.6049705
12.892122 4.671978 -1.6035767
12.891778 4.6260881 -1.6017183
12.911818 4.8198295 -1.6117072
12.913855 4.7744169 -1.6100811
12.917597 4.7297277 -1.6086873
12.883062 4.8116574 -1.6082227
12.90743 4.7746091 -1.6093842
12.886928 4.7210488 -1.6049705
12.890705 4.9096003 -1.613101
12.906917 4.8668227 -1.613101
12.878569 4.9023981 -1.6114749
12.884612 4.8584127 -1.6103133
12.898492 5.0055914 -1.6179793
12.890052 4.9557743 -1.6149594
12.877252 4.999927 -1.615424
12.879918 4.9544578 -1.6137979
12.885262 5.0938339 -1.6203023
12.895651 5.0511575 -1.6196054
12.867746 5.0895133 -1.6182116
12.872579 5.044704 -1.6168178
12.873505 5.2352405 -1.6251806
12.875148 5.1888337 -1.6233222
12.884902 5.1431661 -1.622393
12.853973 5.1829152 -1.6207669
12.862763 5.1343293 -1.6196054
12.860543 5.324389 -1.627736
12.864344 5.2786779 -1.62611
12.849511 5.325069 -1.6265745
12.854234 5.2771506 -1.6249484
12.848668 5.2277608 -1.6221608
12.853351 5.4188976 -1.6312205
12.86848 5.3777213 -1.6309882
12.835932 5.4141927 -1.6291298
12.84282 5.3669982 -1.627736
12.839993 5.5111909 -1.6340082
12.846276 5.4661613 -1.6326144
12.829906 5.5095124 -1.6328466
12.838013 5.4652848 -1.631685
12.833763 5.6550145 -1.640048
12.831441 5.6059222 -1.6374927
12.844493 5.5609698 -1.6367958
12.814599 5.649241 -1.6377249
12.814081 5.6010017 -1.635402
12.823469 5.5545325 -1.6342404
12.822355 5.749146 -1.6433002
12.824017 5.7015743 -1.6412095
12.80685 5.7448859 -1.6414418
12.811311 5.6959252 -1.6395833
12.799417 5.8384309 -1.6451585
12.818707 5.7959571 -1.6451585
12.793996 5.835958 -1.6444618
12.805029 5.7924571 -1.6435325
12.801091 5.9393582 -1.6502693
12.805248 5.8924723 -1.6484108
12.794651 5.9390769 -1.6495723
12.796227 5.8883204 -1.6472493
12.784747 6.0815892 -1.6556121
12.77864 6.0295238 -1.65236
12.793165 5.9845924 -1.6516629
12.779366 6.0790291 -1.6549153
12.784029 6.0320668 -1.6530567
12.792121 5.986825 -1.6516629
12.773823 6.1778555 -1.6593289
12.774535 6.1260161 -1.6567737
12.754151 6.1683416 -1.6567737
12.766301 6.1248078 -1.6558444
12.763276 6.272018 -1.6630458
12.768634 6.2249227 -1.6611874
12.755054 6.2707338 -1.6621165
12.756835 6.2219257 -1.6597936
12.749166 6.3676171 -1.6665303
12.769107 6.3275356 -1.6665303
12.749828 6.3707356 -1.6667626
12.760207 6.3231254 -1.6653688
12.740513 6.5168428 -1.6734993
12.732579 6.4624023 -1.6697825
12.749269 6.4205852 -1.669318
12.72169 6.5100164 -1.6711763
12.733222 6.4655237 -1.6700147
12.740397 6.4161177 -1.6681564
12.731649 6.6163926 -1.6779131
12.732954 6.5663428 -1.6753578
12.741074 6.6241059 -1.679307
12.722361 6.5608797 -1.6739639
12.70974 6.7095947 -1.6807007
12.720201 6.6640983 -1.679307
12.773561 6.7461371 -1.6892959
12.759501 6.6875339 -1.6846498
12.673149 6.7952862 -1.6816299
12.702628 6.7569575 -1.6825591
12.806753 6.8698015 -1.6995171
12.787375 6.8049006 -1.6939418
12.677 6.9548416 -1.6909219
12.67785 6.903584 -1.6881343
12.691937 6.8567805 -1.6869729
12.84533 6.9947834 -1.7104353
12.818309 6.9279504 -1.7039309
12.663064 7.0539565 -1.6951034
12.675953 7.0061626 -1.6937096
12.904282 7.1883268 -1.7273933
12.886816 7.1256456 -1.7220504
12.862118 7.0593214 -1.7157781
12.658742 7.1590595 -1.7006787
12.67375 7.1121845 -1.6995171
12.947502 7.3223658 -1.739473
12.915015 7.2505317 -1.7320393
12.646701 7.260438 -1.7053246
12.649998 7.2066569 -1.7025371
12.98436 7.4542871 -1.7508557
12.964133 7.3856182 -1.7448158
12.63296 7.4146824 -1.7129906
12.623152 7.3527493 -1.7083446
12.647905 7.3140526 -1.7085769
13.049262 7.6590228 -1.7694399
13.023488 7.5889821 -1.7627031
13.00215 7.5189056 -1.756431
12.601484 7.503058 -1.7150813
12.616446 7.458374 -1.7139198
13.079746 7.790904 -1.7803581
13.054208 7.7171626 -1.773389
12.573172 7.5966058 -1.7178689
12.598677 7.5580926 -1.7181013
13.144764 7.9450817 -1.7961545
13.11482 7.867734 -1.7884885
12.545872 7.6911325 -1.7208889
12.56282 7.6443262 -1.7197274
13.184343 8.0825415 -1.8084664
13.179125 8.0224915 -1.804285
12.538807 7.8533845 -1.730181
12.533052 7.7950711 -1.7259995
12.550384 7.7482467 -1.7248379
13.221273 8.2231178 -1.8207785
13.207906 8.1541824 -1.8152033
12.528069 7.9597597 -1.735756
12.51743 7.8948607 -1.7306455
13.167894 8.3083267 -1.8207785
13.210768 8.277462 -1.8231015
12.551544 8.0889206 -1.7462096
12.533118 8.0183516 -1.7399375
13.13596 8.4655504 -1.8275152
13.158937 8.4187336 -1.8268182
12.585284 8.2230396 -1.7580571
12.567727 8.1553488 -1.7520173
13.124249 8.5784607 -1.8335551
13.122808 8.5188017 -1.8296059
12.649713 8.4426928 -1.7784995
12.627966 8.3677778 -1.7715305
12.609176 8.2952881 -1.7650262
13.054381 8.7094927 -1.8351812
13.075061 8.6640396 -1.8342519
13.099046 8.6241226 -1.8340197
12.705007 8.5954733 -1.7938316
12.670943 8.5145187 -1.7852364
13.0095 8.8047771 -1.8370396
13.0305 8.7594318 -1.8361104
12.760623 8.7537527 -1.809628
12.741971 8.6789541 -1.8028913
12.957277 8.891983 -1.8377364
12.960426 8.8310728 -1.8340197
12.839187 8.9301138 -1.8289089
12.805072 8.8468285 -1.8200816
12.951711 9.008378 -1.8449378
12.973338 8.9597368 -1.8437762
12.934272 9.1783304 -1.8546944
12.907843 9.0987349 -1.8467962
12.868073 9.0136728 -1.8372718
12.944014 9.1886311 -1.8563205
12.941969 9.1261721 -1.8519069
12.946169 9.0683765 -1.8484223
12.965181 9.2684765 -1.8637543
12.982755 9.3428135 -1.8704909
12.963565 9.2673206 -1.8635219
12.981531 9.4697742 -1.8790861
12.971037 9.3963699 -1.8730464
12.951039 9.4475307 -1.8746724
12.972646 9.3975353 -1.8732785
12.3205 22.162874 -2.9653275
12.304659 21.971537 -2.944885
12.315444 22.494627 -2.9990113
12.365973 22.410185 -2.9932036
11.85329 22.161989 -2.9390774
11.967247 22.19775 -2.9490664
12.115618 22.304932 -2.9683475
11.545302 21.916162 -2.8967986
11.691397 22.025417 -2.9160795
11.4008 21.984966 -2.8961017
11.418286 21.850452 -2.8830926
11.198987 21.941359 -2.88077
11.311662 21.981823 -2.890991
10.662664 21.395357 -2.7955151
10.742306 21.386608 -2.7987673
11.263721 22.240482 -2.9153826
10.575874 21.569 -2.809221
10.587476 21.412722 -2.7934244
10.451048 21.667259 -2.8131702
10.508065 21.602118 -2.809221
10.369203 21.847359 -2.8280375
10.405223 21.746574 -2.8192098
10.966826 23.701811 -3.0540667
11.007565 23.584309 -3.043613
11.030005 23.439972 -3.0294425
10.895042 23.940201 -3.0759029
10.900601 23.754198 -3.0563896
10.836741 24.225845 -3.1035469
10.846639 24.045004 -3.0847304
10.691262 24.320778 -3.1067991
10.786139 24.328836 -3.1121418
10.34941 24.170284 -3.0747416
10.458368 24.214245 -3.0844982
10.574857 24.274145 -3.0963454
10.151521 24.137732 -3.062197
10.242038 24.140467 -3.0666108
9.8574419 23.868622 -3.0199184
10.016026 24.026487 -3.0440779
9.6404009 23.777143 -3.0004051
9.8117361 23.971176 -3.0289781
7.5022259 19.016317 -2.3906138
9.4004316 23.610243 -2.9718318
9.5486145 23.764919 -2.9950621
7.4261165 19.007786 -2.3864324
9.0321131 23.789705 -2.975781
7.3188529 19.096151 -2.3915429
8.8325415 23.724672 -2.9604492
8.8944683 23.66333 -2.9562678
6.7490344 18.674543 -2.3220849
6.8028984 18.640186 -2.3204587
6.8751588 18.656002 -2.325105
8.3364305 23.541355 -2.9204934
8.4593019 23.638891 -2.9360576
8.1725149 23.560919 -2.916312
8.2708044 23.604488 -2.924907
7.9601412 23.436396 -2.8944757
8.0582371 23.482666 -2.9033029
7.6100321 23.132444 -2.8477831
7.7873206 23.42322 -2.8865774
7.8750749 23.427397 -2.8902941
7.4714437 23.215141 -2.8519645
7.5557718 23.212902 -2.8547521
7.3416576 23.32733 -2.8598628
7.3978767 23.236605 -2.8517323
7.1166167 23.118595 -2.8287344
7.2441235 23.272514 -2.8503382
6.967185 23.164068 -2.8287344
7.060154 23.194048 -2.8352387
6.7068472 23.100155 -2.8129377
6.7894583 23.113279 -2.8171194
6.8801394 23.152769 -2.8245528
6.5244975 23.0264 -2.7987673
6.6101289 23.037098 -2.8027165
6.3439007 22.953176 -2.7848294
6.4459677 23.040257 -2.7978382
6.0916219 22.893991 -2.7704265
6.1778455 22.912024 -2.7750726
6.2607775 22.932749 -2.7799511
5.9057736 22.786707 -2.7527716
5.737196 22.723213 -2.7406919
5.8016362 22.694544 -2.7392983
5.5783243 22.727964 -2.7367427
5.6637254 22.749826 -2.7416213
5.4243255 22.716198 -2.7311678
5.4979963 22.708698 -2.7323291
5.1626682 22.595774 -2.7104928
5.241168 22.594009 -2.7123513
5.3284974 22.647045 -2.7207141
5.0154281 22.604494 -2.707705
5.0990791 22.644825 -2.714442
4.8534751 22.562616 -2.6988778
4.9323931 22.584126 -2.7032914
4.6099319 22.477783 -2.6833136
4.684989 22.484581 -2.6858687
4.7736964 22.555264 -2.6960902
4.4554138 22.460321 -2.6777384
4.5263414 22.44816 -2.6779706
4.293077 22.39888 -2.6670525
4.3592391 22.363834 -2.6644971
4.1233988 22.291359 -2.6510236
4.2278304 22.439589 -2.6703048
3.9926221 22.391832 -2.6598513
4.063653 22.360882 -2.6577606
3.7702391 22.386032 -2.6547406
3.8351672 22.342752 -2.6510236
3.9222605 22.404264 -2.6598513
3.6183004 22.364811 -2.6493976
3.6943934 22.364447 -2.6507914
3.474961 22.369436 -2.6473069
3.5439706 22.350561 -2.6463776
3.3275096 22.371763 -2.6449838
3.4043372 22.404406 -2.6500945
3.1078794 22.397314 -2.6442869
3.1832588 22.394749 -2.645216
3.2535939 22.384638 -2.645216
2.9571958 22.341562 -2.6354594
3.031368 22.361692 -2.6389441
2.8086321 22.326689 -2.6315103
2.8805451 22.331547 -2.6331365
2.6446466 22.178673 -2.6119971
2.7133403 22.162369 -2.611068
2.3994603 21.944777 -2.5815656
2.4935808 22.1262 -2.6038666
2.5582335 22.042826 -2.5950391
2.2900293 22.236059 -2.6140878
2.3456099 22.094431 -2.5982912
2.1330242 22.111977 -2.5978267
2.2137234 22.217836 -2.611068
1.9964253 22.194536 -2.6059573
2.0652118 22.136368 -2.5999174
1.7805839 22.179014 -2.6020081
1.8552768 22.186846 -2.6036341
1.9223998 22.151222 -2.6001496
1.6333734 22.136562 -2.595736
1.7115132 22.192423 -2.6029375
1.4918447 22.110712 -2.5915544
1.5652251 22.1614 -2.5980592
1.3483024 22.107988 -2.5901608
1.4209245 22.153204 -2.5959682
1.1310425 22.022703 -2.578778
1.1967591 21.955568 -2.5713441
1.2706414 22.036978 -2.5813332
0.98939323 22.128944 -2.5903931
1.0594298 22.056097 -2.5822623
0.84696639 22.047386 -2.5801718
0.91862458 22.102175 -2.5869086
0.70578778 22.090118 -2.5845854
0.77917296 22.091625 -2.5850501
0.49260148 22.046227 -2.578778
0.56170315 22.03861 -2.5780811
0.63133043 22.05064 -2.5797071
0.3504428 22.062851 -2.580404
0.42031604 22.091433 -2.5838885
0.20771548 22.038832 -2.577384
0.27650839 22.002316 -2.5732028
0.069379605 22.08539 -2.5827272
0.13855857 22.05328 -2.5790102
-0.14612122 22.03138 -2.5764549
-0.077056788 22.073446 -2.5813332
-0.003854844 22.089472 -2.5831919
-0.28470075 22.041945 -2.5778487
-0.21532983 22.030813 -2.5764549
-0.43141589 22.067375 -2.5811009
-0.35840109 22.078617 -2.5822623
-0.57115 22.105932 -2.5859795
-0.5010727 22.079815 -2.5827272
-0.78880322 22.144955 -2.5913222
-0.71807253 22.111584 -2.5871408
-0.64036053 22.096085 -2.5850501
-0.92760646 22.040165 -2.5797071
-0.85813451 22.136412 -2.5906253
-1.0688664 22.09144 -2.5864439
-0.99693763 22.124628 -2.5899284
-1.2137798 22.125731 -2.5913222
-1.1447704 22.139355 -2.5924838
-1.4324154 22.150473 -2.595736
-1.3559073 22.105532 -2.5899284
-1.2811043 22.084129 -2.5869086
-1.5702876 22.123205 -2.5936453
-1.5033361 22.165686 -2.5980592
-1.7114055 22.140631 -2.5968976
-1.644488 22.181555 -2.601079
-1.8592077 22.140669 -2.5982912
-1.7865791 22.15661 -2.5994527
-2.0714884 22.16172 -2.6029375
-2.0031099 22.181967 -2.6045635
-1.9311655 22.162424 -2.6015434
-2.2208016 22.171213 -2.605725
-2.1503747 22.17017 -2.6047957
-2.3657455 22.210152 -2.6119971
-2.298398 22.203245 -2.6103709
-2.5127635 22.192003 -2.6117649
-2.4251077 22.10783 -2.6008465
-2.7281048 22.186573 -2.6140878
-2.6464901 22.128439 -2.6061895
-2.5859208 22.213594 -2.6152492
-2.8804986 22.239416 -2.6224506
-2.7869656 22.123196 -2.6075833
-3.0266092 22.268118 -2.6280258
-2.9375522 22.133766 -2.611068
-3.1832387 22.338572 -2.6387117
-3.1102331 22.356876 -2.639641
-3.3993056 22.318769 -2.6401055
-3.3233178 22.290043 -2.6354594
-3.2604487 22.349516 -2.6412671
-3.5368168 22.255154 -2.6352272
-3.4730642 22.331535 -2.6428933
-3.700901 22.355316 -2.6498623
-3.6284173 22.353107 -2.648236
-3.851058 22.388397 -2.656599
-3.771451 22.345537 -2.6500945
-4.1099014 22.570528 -2.6828489
-4.0127487 22.43667 -2.6654265
-3.928364 22.393112 -2.6586897
-4.2534666 22.55402 -2.6840105
-4.1441488 22.33802 -2.6568313
-4.4201059 22.613047 -2.6944642
-4.3353586 22.576855 -2.6884243
-4.579812 22.672443 -2.7049177
-4.4996605 22.641909 -2.6995747
-4.8378816 22.799545 -2.7255924
-4.746819 22.74157 -2.7167649
-4.6673594 22.717453 -2.7121189
-4.9886718 22.803629 -2.7297738
-4.9241252 22.852201 -2.7337229
-5.1694813 22.920149 -2.7476611
-5.0996094 22.945971 -2.7488225
-5.3488665 23.02173 -2.7639222
-5.2680717 23.001635 -2.7595084
-5.6093855 23.133421 -2.7836678
-5.5260601 23.106495 -2.7783251
-5.4339185 23.05895 -2.7704265
-5.7788424 23.177668 -2.7934244
-5.6931915 23.143625 -2.7871523
-5.9579782 23.255325 -2.8073626
-5.8736835 23.229635 -2.8020196
-6.1292591 23.29705 -2.8171194
-6.046555 23.279661 -2.8127055
-6.388752 23.369358 -2.833148
-6.3049402 23.35096 -2.8285019
-6.2029257 23.2796 -2.8173513
-6.5636606 23.413683 -2.8436015
-6.4695506 23.375975 -2.8364003
-6.7361069 23.445274 -2.8526614
-6.6510291 23.426191 -2.8477831
-6.9242039 23.541605 -2.8696194
-6.8357987 23.513645 -2.8635795
-7.2020378 23.630518 -2.8889003
-7.1111369 23.59787 -2.8821635
-7.0164108 23.566109 -2.8754268
-7.3822889 23.687208 -2.9014447
-7.2879372 23.645741 -2.8935463
-7.584487 23.779671 -2.9188671
-7.4948063 23.75602 -2.9130597
-7.7736101 23.839733 -2.9323406
-7.6804972 23.821894 -2.9269977
-8.0578775 23.929686 -2.9527831
-7.9707322 23.919071 -2.9483695
-7.8646278 23.86425 -2.9383805
-8.2455282 23.987541 -2.9662569
-8.1445389 23.938101 -2.9569647
-8.4498529 24.061649 -2.9822855
-8.3432779 24.012606 -2.9727612
-8.6491079 24.142727 -2.9990113
-8.5566101 24.122978 -2.9932036
-8.9589815 24.258293 -3.0240998
-8.8469868 24.214785 -3.0148077
-8.7546444 24.197628 -3.0092325
-9.1476202 24.298197 -3.0361795
-9.0518103 24.274696 -3.029675
-9.3940277 24.472292 -3.0654495
-9.2493114 24.336187 -3.0445423
-9.6039963 24.544304 -3.082175
-9.4894962 24.478045 -3.0700955
-9.9356976 24.703344 -3.1137681
-9.8197899 24.638483 -3.1016884
-9.7137995 24.584373 -3.0912347
-10.164869 24.796814 -3.1339781
-10.05177 24.74213 -3.12306
-10.408961 24.932302 -3.1595316
-10.273845 24.840021 -3.1435027
-10.661453 25.080286 -3.1869431
-10.530425 25.001997 -3.1725404
-11.047478 25.322811 -3.2308481
-10.900844 25.202417 -3.2111025
-10.785606 25.152554 -3.2004166
-11.295014 25.428713 -3.2538459
-11.185822 25.409666 -3.2466445
-11.608307 25.69758 -3.2975185
-11.432499 25.52182 -3.2703393
-11.936586 25.975864 -3.3430495
-11.78407 25.857784 -3.3230715
-12.252272 26.002048 -3.3614013
-12.139397 25.973827 -3.3528063
-12.039363 25.972185 -3.3476956
-12.418216 25.918798 -3.3609366
-12.351215 25.988188 -3.3648858
-12.588801 25.845215 -3.361866
-12.490263 25.848862 -3.3572199
-9.8618546 19.918905 -2.5992203
-12.711227 25.878208 -3.3716228
-9.9224138 19.71995 -2.5815656
-9.9004316 19.839836 -2.5929484
