# .PCD v0.7 - Point Cloud Data file format
VERSION 0.7
FIELDS x y z
SIZE 4 4 4
TYPE F F F
COUNT 1 1 1
WIDTH 1
HEIGHT 637
VIEWPOINT 0 0 0 1 0 0 0
POINTS 637
DATA ascii
0.20203373 -1.326489 -0.7957446
0.2031927 -1.3628472 -0.81716853
0.21221547 -1.3353502 -0.8018657
0.20934251 -1.344509 -0.8069666
0.21712963 -1.3101542 -0.78758311
0.21526438 -1.326149 -0.79676479
0.22389764 -1.3002876 -0.78248221
0.22210434 -1.3145541 -0.79064369
0.22549067 -1.2371123 -0.74575549
0.22259842 -1.2446268 -0.74983627
0.22939837 -1.3063152 -0.78656292
0.22464356 -1.1900307 -0.71821052
0.2681269 -1.4203801 -0.81215316
0.2252968 -1.2144099 -0.73249316
0.26938817 -1.4520742 -0.82978737
0.23649471 -1.2087735 -0.73045272
0.27151495 -1.3877693 -0.79451895
0.2335716 -1.2163491 -0.73453349
0.26897094 -1.400695 -0.80137664
0.28022912 -1.3860359 -0.79451895
0.24096227 -1.2113988 -0.73249316
0.27519315 -1.3834893 -0.79255956
0.28017357 -1.3192446 -0.79982537
0.27227941 -1.3033277 -0.7896235
0.25168467 -1.2250264 -0.74167478
0.28388035 -1.3817328 -0.79255956
0.28367379 -1.2956127 -0.78656292
0.2810528 -1.3032237 -0.79064369
0.29847419 -1.3840057 -0.79549861
0.29014078 -1.2853637 -0.78146201
0.30944222 -1.3708718 -0.78962058
0.28587672 -1.2863188 -0.78146201
0.30602932 -1.3769966 -0.79255956
0.29921448 -1.2868142 -0.78350234
0.31437612 -1.3715376 -0.79060024
0.30952457 -1.2755241 -0.77840143
0.33059111 -1.3623376 -0.78766114
0.29970178 -1.2707993 -0.77432072
0.32298744 -1.3695353 -0.79060024
0.3414923 -1.3686332 -0.79255956
0.31416392 -1.2761612 -0.77942169
0.3367742 -1.3680061 -0.7915799
0.32597232 -1.2714202 -0.77840143
0.35075653 -1.3680884 -0.79353929
0.35825202 -1.3607363 -0.79060024
0.33126244 -1.2753849 -0.78146201
0.35592949 -1.370355 -0.79549861
0.34101942 -1.2621222 -0.77534091
0.33727536 -1.2649083 -0.77636111
0.36207584 -1.3579193 -0.78962058
0.37911224 -1.3514512 -0.78864086
0.37416345 -1.3510203 -0.78766114
0.34520295 -1.2609844 -0.77534091
0.37153435 -1.3571699 -0.79060024
0.38783169 -1.3489747 -0.78864086
0.35964191 -1.2658864 -0.78044182
0.37031901 -1.2574253 -0.77738124
0.3945646 -1.3397516 -0.78472215
0.36758867 -1.2636017 -0.78044182
0.38287383 -1.2554581 -0.77840143
0.40791538 -1.3375702 -0.78570181
0.37843111 -1.2550077 -0.77738124
0.40421453 -1.3405144 -0.78668147
0.37546954 -1.2594875 -0.77942169
0.40000132 -1.3417777 -0.78668147
0.39126661 -1.2546699 -0.77942169
0.41683051 -1.3366454 -0.78668147
0.38529527 -1.2493175 -0.77534091
0.41365713 -1.3412807 -0.78864086
0.39748728 -1.2454921 -0.77534091
0.39409047 -1.2483752 -0.77636111
0.41991922 -1.3301939 -0.78374243
0.40530518 -1.24297 -0.77534091
0.43351835 -1.3294927 -0.78570181
0.40298265 -1.2491486 -0.77840143
0.4282687 -1.3275292 -0.78374243
0.41353983 -1.2402546 -0.77534091
0.41157958 -1.248154 -0.77942169
0.42486632 -1.2346013 -0.77432072
0.45333767 -1.317335 -0.78276277
0.45177642 -1.3270842 -0.78766114
0.41853261 -1.2422098 -0.77738124
0.44593483 -1.3235399 -0.78472215
0.46183512 -1.3143802 -0.78276277
0.43043736 -1.2381351 -0.77738124
0.46033666 -1.3241391 -0.78766114
0.44114184 -1.2307073 -0.77534091
0.46949622 -1.309811 -0.7817831
0.43727323 -1.2320871 -0.77534091
0.46829483 -1.3194954 -0.78668147
0.47854364 -1.3083894 -0.78276277
0.47621229 -1.3148046 -0.78570181
0.46105915 -1.2233852 -0.77534091
0.49438313 -1.3118078 -0.78766114
0.45314917 -1.226337 -0.77534091
0.48408842 -1.3100665 -0.78472215
0.49886477 -1.2989094 -0.7817831
0.4661237 -1.2251463 -0.77738124
0.49788183 -1.3086184 -0.78668147
0.50787807 -1.2972844 -0.78276277
0.47278139 -1.2189029 -0.77534091
0.50379992 -1.2988734 -0.78276277
0.48955742 -1.2159722 -0.77738124
0.52030736 -1.2923495 -0.78276277
0.48382249 -1.2127109 -0.77432072
0.51430637 -1.2891192 -0.77982378
0.47874549 -1.2110252 -0.77228034
0.49826428 -1.2142899 -0.77840143
0.52754331 -1.2856439 -0.78080344
0.49034828 -1.2063738 -0.77228034
0.52590328 -1.2938476 -0.78472215
0.53426647 -1.2790861 -0.77884406
0.50010252 -1.2079505 -0.77534091
0.53291351 -1.2872024 -0.78276277
0.51121122 -1.201422 -0.77432072
0.5391826 -1.2789142 -0.77982378
0.51738304 -1.195029 -0.77228034
0.55212718 -1.2752796 -0.78080344
0.51634014 -1.2029716 -0.77636111
0.55018115 -1.2818146 -0.78374243
0.5323233 -1.1978675 -0.77738124
0.56859171 -1.2794812 -0.78668147
0.52973491 -1.2027748 -0.77942169
0.52388835 -1.1997037 -0.77636111
0.55682856 -1.2751367 -0.7817831
0.57253218 -1.2662501 -0.78080344
0.53277367 -1.1882473 -0.77228034
0.56926477 -1.2696335 -0.7817831
0.54466736 -1.1847363 -0.77330053
0.58411866 -1.2705489 -0.78570181
0.54165637 -1.1880068 -0.77432072
0.5801242 -1.2723777 -0.78570181
0.58488077 -1.2605939 -0.78080344
0.60164797 -1.254612 -0.7817831
0.55992287 -1.177603 -0.77330053
0.59898162 -1.2597495 -0.78374243
0.55695432 -1.1809123 -0.77432072
0.59204596 -1.2553172 -0.77982378
0.57215953 -1.1736206 -0.77432072
0.61126542 -1.2538351 -0.78374243
0.56697178 -1.172315 -0.77228034
0.60504603 -1.2510402 -0.78080344
0.61702693 -1.2451748 -0.78080344
0.5766024 -1.1733611 -0.77534091
0.61520147 -1.2519085 -0.78374243
0.58726913 -1.1661333 -0.77432072
0.6234864 -1.2380496 -0.77884406
0.58263028 -1.1665353 -0.77330053
0.63374382 -1.2289083 -0.77688473
0.59615141 -1.1654834 -0.77636111
0.62816209 -1.2376397 -0.77982378
0.64247561 -1.2263346 -0.7778644
0.60128546 -1.15703 -0.77330053
0.64081746 -1.2330999 -0.78080344
0.61175704 -1.1495794 -0.77228034
0.65201968 -1.2252387 -0.77982378
0.61035079 -1.1561655 -0.77534091
0.65039504 -1.2320199 -0.78276277
0.61733258 -1.1426859 -0.77024001
0.6588763 -1.2195836 -0.77884406
0.61942995 -1.1552321 -0.77738124
0.65504158 -1.2216475 -0.77884406
0.67076468 -1.2130857 -0.77884406
0.62986374 -1.1476147 -0.77636111
0.67030621 -1.2213011 -0.78276277
0.62276387 -1.143654 -0.77228034
0.66458476 -1.2204547 -0.78080344
0.63916653 -1.1385157 -0.77432072
0.68114513 -1.2132901 -0.7817831
0.63538766 -1.1406289 -0.77432072
0.67287546 -1.207926 -0.77688473
0.68810254 -1.2073514 -0.78080344
0.63955009 -1.1304009 -0.77024001
0.68688196 -1.2140597 -0.78374243
0.65189767 -1.1273016 -0.77228034
0.69218355 -1.1969664 -0.77688473
0.64835286 -1.129344 -0.77228034
0.69189221 -1.2051836 -0.78080344
0.70651209 -1.1946465 -0.77982378
0.66197288 -1.1274035 -0.77534091
0.65976506 -1.1326803 -0.77738124
0.69681805 -1.1962925 -0.7778644
0.67079896 -1.1181643 -0.77330053
0.71310717 -1.1886885 -0.77884406
0.66816318 -1.121744 -0.77432072
0.67820001 -1.1136909 -0.77330053
0.72188199 -1.1854223 -0.77982378
0.67717278 -1.1203504 -0.77636111
0.68247229 -1.1050168 -0.77024001
0.73023212 -1.1823466 -0.78080344
0.68439353 -1.115954 -0.77636111
0.72286797 -1.1786894 -0.77688473
0.69415814 -1.0997485 -0.77126014
0.74175328 -1.175153 -0.78080344
0.73118037 -1.1756048 -0.7778644
0.70383626 -1.0997119 -0.77432072
0.69391847 -1.091755 -0.76717943
0.74357063 -1.1698737 -0.77884406
0.70904976 -1.0922581 -0.77228034
0.75286752 -1.1597573 -0.77688473
0.70281851 -1.0901427 -0.76921976
0.75488913 -1.1709096 -0.78276277
0.71798033 -1.0905302 -0.77432072
0.76321763 -1.1592405 -0.77982378
0.7164337 -1.0956599 -0.77636111
0.73225415 -1.0892985 -0.77840143
0.77041912 -1.1460725 -0.77590507
0.72386312 -1.0845665 -0.77330053
0.7695182 -1.1529716 -0.77884406
0.76685572 -1.156837 -0.77982378
0.7300759 -1.0783174 -0.77228034
0.77812564 -1.1492866 -0.77982378
0.7869404 -1.1390331 -0.7778644
0.73683667 -1.073709 -0.77228034
0.786318 -1.1458125 -0.78080344
0.80048096 -1.1423564 -0.78374243
0.74473745 -1.0703404 -0.77330053
0.79469675 -1.1421422 -0.7817831
0.75831372 -1.0607651 -0.77330053
0.75696951 -1.0659473 -0.77534091
0.8036046 -1.1316179 -0.77982378
0.74965072 -1.0626975 -0.77126014
0.80205578 -1.1369865 -0.7817831
0.76937103 -1.0612836 -0.77738124
0.8146264 -1.1237097 -0.77982378
0.76182717 -1.0582447 -0.77330053
0.82289839 -1.1198306 -0.78080344
0.76661706 -1.0505239 -0.77126014
0.81712461 -1.1197363 -0.77884406
0.82991821 -1.1146382 -0.78080344
0.77543098 -1.0483173 -0.77330053
0.8284862 -1.1200435 -0.78276277
0.78786463 -1.0368456 -0.77228034
0.78442204 -1.0394524 -0.77228034
0.83394796 -1.1050801 -0.7778644
0.78321642 -1.0446644 -0.77432072
0.83360988 -1.1118799 -0.78080344
0.79646248 -1.0346011 -0.77432072
0.84558088 -1.0984057 -0.77884406
0.79425323 -1.0384644 -0.77534091
0.84530383 -1.1052117 -0.7817831
0.79889446 -1.0240109 -0.77024001
0.84943897 -1.088798 -0.77590507
0.79778123 -1.0292349 -0.77228034
0.85969633 -1.0873933 -0.77884406
0.80653632 -1.0267673 -0.77432072
0.85735315 -1.09146 -0.77982378
0.82080972 -1.0176041 -0.77534091
0.81115407 -1.0121236 -0.76921976
0.86797988 -1.0830284 -0.77982378
0.81297171 -1.0216794 -0.77432072
0.860937 -1.0819585 -0.77688473
0.82300955 -1.0069546 -0.77126014
0.87612909 -1.0719464 -0.7778644
0.87586641 -1.078907 -0.78080344
0.82730043 -0.99896896 -0.76921976
0.83145654 -1.0111518 -0.77636111
0.88041312 -1.070689 -0.77884406
0.83484018 -1.0016508 -0.77330053
0.89084387 -1.0688447 -0.7817831
0.84211522 -0.98424971 -0.76819956
0.90230668 -1.0546005 -0.77982378
0.83889806 -0.99375665 -0.77126014
0.89641732 -1.0618938 -0.78080344
0.85616857 -0.98803955 -0.77534091
0.849693 -0.9868136 -0.77228034
0.90789074 -1.0544032 -0.7817831
0.86122507 -0.98134762 -0.77432072
0.85361528 -0.9788624 -0.77024001
0.91335183 -1.0473639 -0.78080344
0.87000108 -0.978185 -0.77636111
0.9247036 -1.0396898 -0.7817831
0.85991877 -0.97332954 -0.77024001
0.91778743 -1.0388303 -0.77884406
0.87472856 -0.96469128 -0.77228034
0.87843251 -0.97525567 -0.77840143
0.86962801 -0.97160161 -0.77330053
0.92447668 -1.0328819 -0.77884406
0.88326746 -0.9615562 -0.77432072
0.87676311 -0.96051478 -0.77126014
0.93452752 -1.023797 -0.77884406
0.88394856 -0.95625013 -0.77228034
0.93975824 -1.0166247 -0.7778644
0.89089245 -0.9450615 -0.77024001
0.94964957 -1.0073912 -0.7778644
0.89346623 -0.95444483 -0.77534091
0.94731885 -1.0119729 -0.77884406
0.90349901 -0.94018722 -0.77330053
0.95836836 -1.003927 -0.77982378
0.89504099 -0.94350612 -0.77126014
0.95160967 -1.0031379 -0.77688473
0.91195148 -0.93679839 -0.77534091
0.96691835 -0.99326283 -0.77884406
0.96604353 -0.99897069 -0.78080344
0.91007489 -0.92901349 -0.77126014
0.97369456 -0.9939571 -0.7817831
0.92381287 -0.92510349 -0.77534091
0.98319089 -0.98456448 -0.7817831
0.91726679 -0.9243381 -0.77228034
0.97640824 -0.98393542 -0.77884406
0.93142331 -0.91498762 -0.77432072
0.99010885 -0.97263759 -0.77982378
0.9932484 -0.98187238 -0.78472215
0.92077768 -0.91596901 -0.77024001
0.98521423 -0.9800691 -0.78080344
0.93854749 -0.91015124 -0.77534091
0.99582464 -0.97178447 -0.7817831
0.94332033 -0.90271729 -0.77432072
0.93784386 -0.90345359 -0.77228034
1.003335 -0.96654326 -0.78276277
1.0176359 -0.9616577 -0.78668147
0.94615173 -0.89974922 -0.77432072
1.0146098 -0.96484989 -0.78668147
0.95375341 -0.88411337 -0.77126014
1.0178691 -0.94354755 -0.77982378
0.950688 -0.89244312 -0.77330053
1.0119206 -0.94992429 -0.77982378
0.961981 -0.8802585 -0.77330053
1.0303727 -0.94284028 -0.78472215
0.95921087 -0.88327628 -0.77330053
1.0261229 -0.94489133 -0.78374243
1.0351458 -0.93499786 -0.78374243
0.96856004 -0.88070393 -0.77636111
1.0320396 -0.93842542 -0.78374243
1.0424638 -0.92945421 -0.78472215
0.97181892 -0.87196314 -0.77432072
1.0522091 -0.92634243 -0.78766114
0.97727829 -0.86583996 -0.77432072
0.99098372 -0.85539412 -0.77636111
1.0612127 -0.91601413 -0.78766114
0.98439544 -0.85511881 -0.77330053
1.0603119 -0.90367335 -0.78276277
1.0640851 -0.91267574 -0.78766114
1.068951 -0.89886564 -0.78472215
0.9965232 -0.84361923 -0.77432072
1.0739491 -0.90916508 -0.79060024
1.0124984 -0.83523309 -0.77840143
1.0733914 -0.89083028 -0.78374243
1.0019503 -0.83716631 -0.77432072
1.0193498 -0.82958549 -0.77942169
1.0886551 -0.88598871 -0.78864086
1.0112708 -0.82860011 -0.77534091
1.0749215 -0.88075328 -0.78080344
1.0245422 -0.82316434 -0.77942169
1.0942005 -0.87913102 -0.78864086
1.0941448 -0.88475692 -0.79060024
1.0286309 -0.8152827 -0.77840143
1.0218879 -0.8154704 -0.77534091
1.0984727 -0.87658536 -0.78962058
1.0296686 -0.80562359 -0.77534091
1.1054633 -0.8649261 -0.78864086
1.0958912 -0.86300081 -0.78374243
1.0456841 -0.80180186 -0.78146201
1.1083293 -0.84983647 -0.78472215
1.0416578 -0.80421376 -0.78044182
1.1012919 -0.85609823 -0.78374243
1.047958 -0.79313958 -0.77942169
1.1150373 -0.84390807 -0.78570181
1.038619 -0.79121566 -0.77432072
1.1096065 -0.84529358 -0.78374243
1.0558146 -0.78841418 -0.78146201
1.1260521 -0.84086299 -0.78962058
1.0435699 -0.78467429 -0.77432072
1.1176831 -0.84040099 -0.78570181
1.1204311 -0.83089238 -0.78374243
0.99999744 -0.72201705 -0.73147291
1.1394082 -0.82267427 -0.78962058
1.0198592 -0.7415151 -0.74779588
1.1312578 -0.82795548 -0.78766114
1.0088427 -0.71853834 -0.73453349
1.144697 -0.81529927 -0.78962058
0.991202 -0.7106781 -0.72331148
1.1364619 -0.81482738 -0.78570181
0.98390239 -0.69124168 -0.71310961
0.9928391 -0.70244908 -0.72127104
1.1657567 -0.82479095 -0.80235636
1.0166246 -0.70446926 -0.7335133
0.99876523 -0.69700742 -0.72229123
1.1016206 -0.74781764 -0.7896235
1.0565324 -0.72233999 -0.75901794
1.0330029 -0.71102542 -0.74371517
1.1078562 -0.7416451 -0.79064369
1.0982592 -0.74050629 -0.78554279
1.1354618 -0.74983692 -0.8069666
1.1259381 -0.74863803 -0.8018657
1.1205505 -0.73494476 -0.7947244
3.4507623 -0.19655269 -1.6360266
0.24544851 -1.2140082 -0.73453349
0.28846085 -1.3807838 -0.79255956
0.30207473 -1.3796546 -0.79353929
0.31868342 -1.3705431 -0.79060024
0.29517031 -1.2877479 -0.78350234
0.32793292 -1.3701524 -0.7915799
0.3185879 -1.2768369 -0.78044182
0.34688446 -1.3708739 -0.79451895
0.33548984 -1.2742794 -0.78146201
0.36657691 -1.3567113 -0.78962058
0.34894288 -1.2599546 -0.77534091
0.36124051 -1.256484 -0.77534091
0.39352885 -1.3527721 -0.7915799
0.42409599 -1.3288682 -0.78374243
0.44232619 -1.3265883 -0.78570181
0.43956274 -1.3330157 -0.78864086
0.43454084 -1.2367008 -0.77738124
0.4582023 -1.2281308 -0.77738124
0.48881125 -1.3101728 -0.78570181
0.47723556 -1.2190136 -0.77636111
0.51345915 -1.2988361 -0.78472215
0.54410344 -1.2787235 -0.78080344
0.50922912 -1.2078661 -0.77738124
0.56083184 -1.273381 -0.7817831
0.53863013 -1.1912701 -0.77534091
0.58957708 -1.2603295 -0.7817831
0.55024749 -1.1859487 -0.77534091
0.56531256 -1.1788419 -0.77534091
0.62015676 -1.2416703 -0.77982378
0.63125312 -1.2341076 -0.77884406
0.5917083 -1.1658164 -0.77534091
0.60591733 -1.1565535 -0.77432072
0.63263339 -1.1441249 -0.77534091
0.64394999 -1.1298808 -0.77126014
0.66376013 -1.1223569 -0.77330053
0.70275545 -1.1968602 -0.77982378
0.71115392 -1.1939189 -0.78080344
0.718849 -1.1893016 -0.78080344
0.74134874 -1.183646 -0.78472215
0.6895746 -1.1087104 -0.77432072
0.74818236 -1.1690007 -0.77982378
0.76148045 -1.164551 -0.7817831
0.72425419 -1.0925705 -0.77738124
0.73442882 -1.0774399 -0.77330053
0.78369659 -1.1497179 -0.7817831
0.75124425 -1.0720913 -0.77636111
0.80715579 -1.1290877 -0.77982378
0.81191421 -1.1278199 -0.78080344
0.7797479 -1.047256 -0.77432072
0.84182763 -1.107862 -0.7817831
0.85028708 -1.0969738 -0.77982378
0.81082481 -1.0255778 -0.77534091
0.87137789 -1.0802963 -0.77982378
0.82183421 -1.0123492 -0.77330053
0.84330285 -0.99228007 -0.77228034
0.91663772 -1.0444891 -0.78080344
0.93229866 -1.0281823 -0.77982378
0.88694835 -0.95346844 -0.77228034
0.96169227 -1.0007435 -0.77982378
0.90393984 -0.9469111 -0.77636111
0.97436422 -0.98840982 -0.77982378
0.92976755 -0.91911858 -0.77534091
0.93568355 -0.9130953 -0.77534091
1.0077944 -0.96441609 -0.78374243
1.0212748 -0.9526875 -0.78472215
0.96892202 -0.87518108 -0.77432072
0.97712147 -0.87119544 -0.77636111
0.97870243 -0.86162871 -0.77330053
1.0622786 -0.92277402 -0.79060024
1.0552753 -0.92284793 -0.78766114
0.99758333 -0.85563648 -0.77942169
0.99931526 -0.84030992 -0.77432072
1.0746849 -0.88653213 -0.78276277
1.0731077 -0.89662093 -0.78570181
1.0959076 -0.86860555 -0.78570181
1.0311871 -0.81204712 -0.77840143
1.1082652 -0.85563815 -0.78668147
1.0362689 -0.80555207 -0.77840143
1.1188245 -0.8242659 -0.78080344
1.1394943 -0.82849884 -0.7915799
0.29412484 -1.3849365 -0.79549861
0.3055158 -1.2764903 -0.77840143
0.32324234 -1.2774411 -0.78146201
0.35451278 -1.2637595 -0.77840143
0.38406828 -1.3518637 -0.78962058
0.42243311 -1.2408888 -0.77738124
0.44908011 -1.2278329 -0.77534091
0.46997026 -1.2236758 -0.77738124
0.50389481 -1.2063733 -0.77534091
0.55397058 -1.1842142 -0.77534091
0.57819873 -1.1668186 -0.77228034
0.59922457 -1.1619711 -0.77534091
0.6939674 -1.1079963 -0.77534091
0.74118394 -1.0728042 -0.77330053
0.77009654 -1.0479759 -0.77126014
0.88748163 -1.0716381 -0.7817831
0.83798283 -0.99902314 -0.77330053
0.902192 -1.0615726 -0.78276277
0.91005689 -1.050228 -0.78080344
0.93005091 -1.0325636 -0.78080344
0.93655974 -1.019572 -0.7778644
0.94532269 -1.0162208 -0.77982378
0.90884 -0.93981737 -0.77534091
0.91540414 -0.92859983 -0.77330053
1.0001243 -0.96986502 -0.78276277
0.94897366 -0.89677238 -0.77432072
0.95474494 -0.8906256 -0.77432072
1.0395386 -0.93272454 -0.78472215
1.0453784 -0.9261747 -0.78472215
0.98284936 -0.85951084 -0.77432072
0.99633867 -0.84915084 -0.77636111
1.0060446 -0.83493769 -0.77534091
1.0273015 -0.83070558 -0.78350234
0.44639227 -1.2324725 -0.77738124
0.89419734 -1.0660408 -0.7817831
6.0810523 -4.8197823 -1.461961
6.0911493 -4.827785 -1.6520665
-4.6803994 12.679957 -2.546582
-4.5241513 12.423242 -2.4910364
-0.19106439 14.792481 -2.7872798
-0.14474098 14.808732 -2.7902422
-0.37864518 14.655177 -2.7620993
-0.33501348 14.7624 -2.7820957
-0.516303 14.566406 -2.746176
-0.46711561 14.540536 -2.7409918
-0.4230299 14.596941 -2.7513604
-0.60550272 14.446911 -2.724328
-0.56133437 14.480165 -2.730253
-0.68528593 14.215096 -2.6813726
-0.64673191 14.352655 -2.7069237
-0.77459711 14.119965 -2.6643388
-0.72777218 14.122456 -2.6643388
-0.89792365 13.961013 -2.6358254
-0.85838157 14.034388 -2.6491563
-0.8169077 14.082145 -2.6576734
-0.98423529 13.866529 -2.6191618
-0.94182456 13.922662 -2.6291599
-1.0257629 13.835928 -2.6139774
-1.2361286 13.224662 -2.5025158
-1.2209165 13.520141 -2.5576913
-1.1864508 13.615936 -2.5750957
-1.3455503 13.456952 -2.5480633
-1.2979022 13.430037 -2.5421383
-1.4359694 13.481205 -2.5543585
-1.3966365 13.514975 -2.5599129
-1.5075427 13.334943 -2.5284374
-1.4669536 13.373081 -2.5347323
-1.6227748 13.216466 -2.508811
-1.5782146 13.196129 -2.5039971
-1.5410295 13.257906 -2.5147359
-1.6610979 13.185952 -2.5039971
-0.082544878 12.445678 -2.6454687
-0.041074436 12.385238 -2.6325781
-0.0021777523 12.479208 -2.6525376
-0.1585443 12.27473 -2.6092918
-0.12016906 12.294729 -2.6134503
-0.23655763 12.208903 -2.5955696
-0.1966694 12.246785 -2.6034703
-0.31377801 12.144542 -2.5822635
-0.27540368 12.135689 -2.5801845
-0.42693838 12.045172 -2.561888
-0.38724649 12.054342 -2.5635514
-0.35062388 12.09852 -2.5726995
-0.50102788 11.954206 -2.5431759
-0.46559435 12.010457 -2.5548191
-0.57424515 11.911742 -2.5348594
-0.53691083 11.915442 -2.5352752
-0.65119857 11.870559 -2.5269589
-0.61283994 11.892189 -2.5311172
-0.75940299 11.807279 -2.5149
-0.7246964 11.848659 -2.5232165
-0.68826455 11.864548 -2.5261273
-0.83437121 11.755149 -2.5049202
-0.79696637 11.781274 -2.5099101
-0.90414453 11.697011 -2.4936931
-0.86681652 11.69199 -2.4920299
-0.9794988 11.688979 -2.4932773
-0.94387484 11.705648 -2.4961879
-1.0836461 11.593334 -2.4749808
-1.0458139 11.581096 -2.4716544
-1.0175737 11.677871 -2.4916139
-1.1631562 11.632814 -2.4849608
-1.1219474 11.609345 -2.4791393
-1.2353586 11.597825 -2.4791393
-1.2065551 11.675595 -2.4949405
-1.3100091 11.587663 -2.4787235
-1.2613335 11.498601 -2.4587638
-1.426419 11.617272 -2.4878714
-1.385039 11.580904 -2.4791393
-1.34663 11.585433 -2.4791393
-0.070615105 10.64697 -2.5227797
-0.035232775 10.623793 -2.5172462
-0.0018492185 10.596605 -2.5107906
-0.1367069 10.584045 -2.5080237
-0.10377582 10.617505 -2.5158629
-0.20524178 10.592671 -2.5103295
-0.16886626 10.515458 -2.4918847
-0.27389377 10.600852 -2.5126352
-0.23904553 10.533564 -2.4964957
-0.37570325 10.599679 -2.5130963
-0.34024107 10.591142 -2.5107906
-0.30634826 10.57076 -2.5057185
-0.44235274 10.554255 -2.5029516
-0.40814003 10.528367 -2.4964957
-0.50809664 10.539604 -2.500185
-0.47437188 10.52754 -2.4969571
-0.57617491 10.502969 -2.4923458
-0.54134476 10.504822 -2.4923458
-0.67176247 10.444634 -2.4798956
-0.64037406 10.470003 -2.485429
-0.60883296 10.495278 -2.4909625
-0.73661023 10.377831 -2.4651399
-0.70481616 10.419049 -2.4743621
-0.79445308 10.277922 -2.4425452
-0.7628814 10.29007 -2.4448507
-1.1248367 10.560221 -2.516324
-1.0856509 10.505629 -2.5024903
-1.2074375 10.680367 -2.5467579
-1.1639467 10.610802 -2.5292354
-1.3331412 10.857584 -2.5919476
-1.2923247 10.80568 -2.5785751
-1.2495213 10.74998 -2.5642805
-1.4227009 10.99929 -2.6279147
-1.3752745 10.917059 -2.6071644
-0.061940636 9.3390799 -2.4448893
-0.031331986 9.4475822 -2.4732537
-0.0016497239 9.4534378 -2.4747732
-0.11919478 9.2282324 -2.416019
-0.091372646 9.3485126 -2.447422
-0.62513763 9.7197065 -2.5497355
-0.59129369 9.6675482 -2.5355535
-0.55744773 9.6094809 -2.5198519
-0.69671094 9.8157043 -2.5760739
-0.66075909 9.7677698 -2.5629048
-0.76701999 9.9230165 -2.6054509
-0.73183864 9.8713512 -2.5912688
-0.058398161 8.8049641 -2.5248384
-0.029086525 8.770505 -2.5149155
-0.0015228365 8.7263336 -2.5022359
-0.11481324 8.8890076 -2.5490944
-0.086546309 8.8547211 -2.5391717
-10.055123 8.5696907 -2.4891849
-10.119132 8.6823359 -2.5121439
-10.090969 8.6215467 -2.5006642
-10.123445 8.7044621 -2.5154765
-9.9222937 8.349431 -2.4432673
-9.9905052 8.4605789 -2.4665964
-9.8929977 8.2865105 -2.4314175
-9.9586201 8.3978262 -2.4543762
-10.017618 8.5045805 -2.4758539
