# .PCD v0.7 - Point Cloud Data file format
VERSION 0.7
FIELDS x y z
SIZE 4 4 4
TYPE F F F
COUNT 1 1 1
WIDTH 1502
HEIGHT 1
VIEWPOINT 0 0 0 1 0 0 0
POINTS 1502
DATA ascii
-2.8277564 5.2914715 -2.5060201
-2.8128493 5.3035889 -2.5075619
-2.7900226 5.3052092 -2.5037076
-2.8647425 5.2652369 -2.5037076
-2.8473113 5.2725868 -2.5029368
-2.828069 5.2787457 -2.501395
-2.8644681 5.2800879 -2.5091035
-2.8452425 5.2841854 -2.5067909
-2.8951147 5.2401662 -2.5006242
-2.8741744 5.2432642 -2.497541
-2.8967519 5.256125 -2.5067909
-2.8783855 5.2662053 -2.5067909
-2.9252825 5.2149224 -2.497541
-2.9124746 5.2305374 -2.5006242
-2.9324231 5.2426519 -2.5091035
-2.9141452 5.2486129 -2.5075619
-2.9561584 5.191112 -2.4952283
-2.9434659 5.208921 -2.4990826
-2.9826057 5.2121401 -2.5083327
-2.9643953 5.2203965 -2.5075619
-2.949791 5.2328997 -2.5091035
-2.9960823 5.1830993 -2.5006242
-2.9751925 5.1844821 -2.4967699
-3.0115895 5.1869125 -2.5052493
-2.9989645 5.202745 -2.5083327
-3.0410459 5.1482754 -2.497541
-3.0248554 5.1578045 -2.497541
-3.0086379 5.1672812 -2.497541
-3.0478334 5.1721268 -2.5075619
-3.0306637 5.1822057 -2.5075619
-3.0760729 5.1295753 -2.4983118
-3.0618756 5.1445065 -2.5006242
-3.0830622 5.1555057 -2.5091035
-3.0640244 5.1604042 -2.5067909
-3.1092012 5.1117229 -2.4990826
-3.0902634 5.1167274 -2.4967699
-3.1304858 5.1225228 -2.5075619
-3.1115038 5.1275997 -2.5052493
-3.0963883 5.1410508 -2.5067909
-3.1440024 5.0925617 -2.4998534
-3.1232414 5.0966644 -2.4967699
-3.1605806 5.097496 -2.5052493
-3.143584 5.1058273 -2.5044785
-3.1898918 5.0595808 -2.4983118
-3.1759381 5.0727067 -2.4998534
-3.1580381 5.0795236 -2.4983118
-3.2003112 5.087914 -2.5106452
-3.1794238 5.0901165 -2.5067909
-3.2263598 5.0429783 -2.5006242
-3.2106092 5.0552068 -2.501395
-3.2291305 5.0609183 -2.5075619
-3.2132137 5.0710387 -2.5075619
-3.2539647 5.0164142 -2.497541
-3.2461858 5.0390224 -2.5037076
-3.2775619 5.0296888 -2.5075619
-3.2607427 5.0384107 -2.5067909
-3.2460105 5.0523024 -2.5083327
-3.2923775 5.0045462 -2.5021658
-3.2806756 5.0210462 -2.5052493
-3.3120086 5.011497 -2.5091035
-3.2943609 5.0209088 -2.5083327
-3.3382068 4.9696484 -2.5006242
-3.3266757 4.9862514 -2.5037076
-3.305896 4.9889865 -2.4998534
-3.3443029 4.9900045 -2.5091035
-3.332701 5.0066304 -2.5121868
-3.3795803 4.9617152 -2.5075619
-3.3579376 4.9652519 -2.5037076
-3.3766272 4.9704189 -2.5098743
-3.359962 4.9794741 -2.5091035
-3.4105024 4.9382682 -2.5067909
-3.3918405 4.9443922 -2.5044785
-3.4229412 4.9341478 -2.5083327
-3.4117949 4.9530692 -2.5121868
-3.3941321 4.9607186 -2.5106452
-3.4402022 4.9131193 -2.5052493
-3.4228382 4.9229846 -2.5044785
-3.4570601 4.9170718 -2.5106452
-3.4458206 4.9339614 -2.5137286
-3.4839885 4.8753638 -2.5029368
-3.4739947 4.8938103 -2.5067909
-3.4503055 4.8947444 -2.501395
-3.4928098 4.8985434 -2.5129578
-3.4722791 4.9040751 -2.5098743
-3.5067358 4.8408089 -2.4967699
-3.5003643 4.8658934 -2.5037076
-3.5211246 4.8714004 -2.5106452
-3.5092566 4.8890462 -2.5137286
-3.5401082 4.8210373 -2.4983118
-3.5271213 4.8351164 -2.4998534
-3.5699162 4.8403449 -2.5121868
-3.5579631 4.8560033 -2.5144994
-3.5366502 4.8624225 -2.511416
-3.5733714 4.8010364 -2.4998534
-3.5585289 4.814343 -2.5006242
-3.5947337 4.8104291 -2.5083327
-3.5840044 4.8276248 -2.511416
-3.6081316 4.7518167 -2.4921448
-3.5956888 4.7681751 -2.4944572
-3.588438 4.7897859 -2.4998534
-3.6332455 4.7953076 -2.5129578
-3.6151054 4.8043795 -2.511416
-3.6421192 4.7328048 -2.4944572
-3.6283543 4.7456889 -2.4952283
-3.6599324 4.767993 -2.5106452
-3.647172 4.782403 -2.5121868
-3.6683807 4.7054605 -2.4921448
-3.6569712 4.7213383 -2.4944572
-3.6838481 4.7355189 -2.5060201
-3.6723394 4.7514482 -2.5083327
-3.7017965 4.6839232 -2.4936867
-3.6836426 4.6911764 -2.491374
-3.7276602 4.6963968 -2.5044785
-3.7132072 4.7101831 -2.5052493
-3.7018065 4.7261834 -2.5075619
-3.7465873 4.6481738 -2.4936867
-3.7334604 4.6634526 -2.4952283
-3.7107482 4.66505 -2.4898324
-3.7613807 4.6765413 -2.5067909
-3.7435496 4.6861043 -2.5052493
-3.7741909 4.6210232 -2.4921448
-3.7643056 4.6385903 -2.4952283
-3.7918539 4.6542478 -2.5075619
-3.7748921 4.6632676 -2.5060201
-3.8063049 4.5993996 -2.4936867
-3.7840011 4.6034417 -2.4890614
-3.8316402 4.6119547 -2.5044785
-3.8230078 4.6310849 -2.5083327
-3.8049273 4.638793 -2.5060201
-3.8335578 4.5718932 -2.4921448
-3.8136504 4.5789094 -2.4890614
-3.86571 4.5906758 -2.5067909
-3.8516486 4.604887 -2.5075619
-3.876066 4.5334835 -2.491374
-3.861012 4.5463114 -2.491374
-3.8502815 4.5626488 -2.4936867
-3.8860948 4.5564671 -2.501395
-3.8789189 4.5771017 -2.5060201
-3.9125118 4.5167265 -2.4959991
-3.8902903 4.5212827 -2.491374
-3.9154363 4.5312786 -2.501395
-3.8991878 4.5428367 -2.5006242
-3.9335122 4.4837303 -2.491374
-3.913343 4.4891105 -2.48752
-3.9446177 4.5058985 -2.501395
-3.93892 4.5280161 -2.5067909
-3.9648364 4.4609952 -2.4929159
-3.9434729 4.4651289 -2.4882905
-3.9950604 4.476088 -2.5060201
-3.9740734 4.4824071 -2.5021658
-3.9538732 4.4879456 -2.4983118
-3.9963233 4.4104218 -2.4859781
-3.9886208 4.4298134 -2.4898324
-3.9746854 4.4423213 -2.4898324
-4.0127439 4.4378743 -2.4990826
-3.9963145 4.4477148 -2.497541
-4.0329747 4.3919773 -2.4906032
-4.0171456 4.4039626 -2.4898324
-4.0480261 4.4207416 -2.5037076
-4.033649 4.4313684 -2.5029368
-4.0567198 4.3624969 -2.4882905
-4.0429955 4.3752189 -2.4882905
-4.0697236 4.3856807 -2.4990826
-4.0614119 4.4059377 -2.5029368
-4.0860734 4.3375506 -2.4890614
-4.0799923 4.3584509 -2.4936867
-4.1129041 4.347753 -2.4998534
-4.0946717 4.3573337 -2.497541
-4.0897808 4.3796167 -2.5029368
-4.1257148 4.2947464 -2.48752
-4.1114502 4.3084044 -2.48752
-4.0996795 4.3246932 -2.4890614
-4.1357861 4.3157735 -2.4967699
-4.1260262 4.3327532 -2.4990826
-4.1539054 4.2700615 -2.4882905
-4.1391859 4.2817645 -2.48752
-4.1615367 4.2883778 -2.4959991
-4.1531687 4.3067431 -2.4990826
-4.1795425 4.239789 -2.4867489
-4.1672988 4.2569914 -2.4882905
-4.1924748 4.2633147 -2.497541
-4.1821828 4.2811546 -2.4998534
-4.2060986 4.2134452 -2.4867489
-4.19804 4.2318797 -2.4898324
-4.2358193 4.2254801 -2.4990826
-4.2230859 4.2408113 -2.4998534
-4.2032514 4.247499 -2.4959991
-4.2470794 4.1721339 -2.4867489
-4.2311769 4.1856375 -2.4859781
-4.2193151 4.2002106 -2.4867489
-4.2577572 4.1928592 -2.4959991
-4.2438297 4.2069559 -2.4959991
-4.2745337 4.1466527 -2.48752
-4.2588444 4.1574831 -2.4859781
-4.2900372 4.170423 -2.4990826
-4.2735472 4.182044 -2.497541
-4.3038883 4.1215153 -2.4890614
-4.2922468 4.1362977 -2.4898324
-4.3094997 4.1369953 -2.4952283
-4.3057728 4.1594892 -2.5006242
-4.3263898 4.0898333 -2.4867489
-4.3148584 4.1046762 -2.48752
-4.355103 4.0997372 -2.4983118
-4.3468418 4.1192346 -2.501395
-4.3258657 4.1252284 -2.4967699
-4.3654499 4.0481143 -2.4867489
-4.3527112 4.0618095 -2.4867489
-4.3351822 4.0724306 -2.4844363
-4.3848319 4.0760617 -2.5006242
-4.3733511 4.0910788 -2.501395
-4.3887777 4.0173478 -2.4852073
-4.3856378 4.0398674 -2.4906032
-4.3988237 4.0364318 -2.4936867
-4.3888326 4.0527353 -2.4952283
-4.4159985 3.99016 -2.4859781
-4.3986464 4.0010567 -2.4836655
-4.4275331 4.0104198 -2.4952283
-4.4203682 4.0292816 -2.4983118
-4.4444275 3.9640172 -2.48752
-4.4285111 3.9762676 -2.4859781
-4.4706583 3.9706311 -2.497541
-4.4560914 3.9842033 -2.4967699
-4.4483414 4.0038977 -2.4998534
-4.4739404 3.9138803 -2.4828947
-4.4685483 3.9340138 -2.4867489
-4.4575486 3.9492569 -2.48752
-4.4934306 3.9392443 -2.4959991
-4.4831104 3.9565661 -2.497541
-4.5019145 3.8873203 -2.4844363
-4.4896808 3.9014432 -2.4844363
-4.5194883 3.9121413 -2.4967699
-4.5078821 3.9283195 -2.497541
-4.5255198 3.8569698 -2.4836655
-4.5099044 3.8695517 -2.4821241
-4.5404477 3.8792787 -2.4944572
-4.5310369 3.8959303 -2.4959991
-4.5524879 3.8308363 -2.4852073
-4.5362062 3.8415406 -2.4828947
-4.5838046 3.8394573 -2.497541
-4.5724578 3.8558261 -2.4983118
-4.5568323 3.8685791 -2.4967699
-4.5925603 3.788506 -2.4867489
-4.573535 3.7970223 -2.4828947
-4.5609188 3.8121679 -2.4828947
-4.6078382 3.81058 -2.497541
-4.5915895 3.8214948 -2.4952283
-4.609118 3.7537489 -2.4828947
-4.5973024 3.7682106 -2.4828947
-4.6274009 3.7780526 -2.4952283
-4.6155095 3.7925704 -2.4952283
-4.6367888 3.7254102 -2.4844363
-4.6207581 3.7364769 -2.4821241
-4.6523566 3.747278 -2.4952283
-4.6391268 3.7607148 -2.4944572
-4.6557679 3.6927626 -2.4821241
-4.6499133 3.7119753 -2.4852073
-4.6852164 3.7001595 -2.4936867
-4.6815872 3.7225676 -2.4983118
-4.6669869 3.7349508 -2.4967699
-4.6845169 3.6652143 -2.4844363
-4.6737866 3.6818709 -2.4852073
-4.7104678 3.6709621 -2.4944572
-4.7003641 3.6868815 -2.4952283
-4.71802 3.6189542 -2.4836655
-4.7074537 3.6357081 -2.4844363
-4.6960077 3.65048 -2.4844363
-4.7370019 3.6427159 -2.4959991
-4.724896 3.6584048 -2.4959991
-4.7442346 3.5906394 -2.4852073
-4.7293658 3.604115 -2.4836655
-4.760426 3.612051 -2.4959991
-4.7498889 3.6289368 -2.4967699
-4.7688012 3.5610325 -2.4859781
-4.7554908 3.5757184 -2.4852073
-4.7933989 3.5650866 -2.4952283
-4.7785964 3.5787501 -2.4936867
-4.7732239 3.5981884 -2.4967699
-4.7866249 3.5277143 -2.4836655
-4.7725549 3.5405345 -2.4821241
-4.8148336 3.5329657 -2.4944572
-4.8090286 3.5533001 -2.497541
-4.8208747 3.4807632 -2.4836655
-4.8078136 3.4956446 -2.4828947
-4.8057437 3.5172715 -2.48752
-4.8405375 3.5039642 -2.4959991
-4.8273997 3.5189102 -2.4952283
-4.8426499 3.4504039 -2.4836655
-4.8332853 3.4666765 -2.4844363
-4.8579531 3.470263 -2.4936867
-4.8560166 3.4919722 -2.4983118
-4.8714676 3.4224539 -2.4867489
-4.8600917 3.4385896 -2.4867489
-4.8946619 3.4247336 -2.4952283
-4.8778443 3.4358416 -2.4921448
-4.8679295 3.4530663 -2.4929159
-4.8807411 3.3833678 -2.4805822
-4.8776555 3.403964 -2.4844363
-4.903934 3.385524 -2.4890614
-4.8968987 3.4021654 -2.4906032
-4.915103 3.336539 -2.481353
-4.8954549 3.3457165 -2.476728
-4.8949747 3.3692567 -2.4821241
-4.9323826 3.3570788 -2.4921448
-4.9242673 3.3755035 -2.4936867
-4.9283032 3.3004575 -2.4774988
-4.9225011 3.3190179 -2.4798114
-4.9518466 3.3249924 -2.491374
-4.9398465 3.3395002 -2.4906032
-4.9439235 3.2636318 -2.4744153
-4.9417214 3.2870009 -2.4790404
-4.9825649 3.2754226 -2.4906032
-4.9737883 3.2920797 -2.491374
-4.9613085 3.3075318 -2.4906032
-4.9581461 3.2284756 -2.4713321
-4.9510655 3.2460604 -2.4728737
-5.0014977 3.2430484 -2.4898324
-4.9943752 3.2607627 -2.491374
-4.9832377 3.1758952 -2.4682486
-4.9664664 3.1884151 -2.4651654
-4.9682636 3.2128842 -2.4713321
-5.0275607 3.2127879 -2.4921448
-5.0101099 3.22632 -2.4890614
-4.999969 3.1425574 -2.466707
-4.9853935 3.1552894 -2.4643946
-5.0492101 3.1821194 -2.4929159
-5.0329556 3.19401 -2.4898324
-4.9981947 3.0965974 -2.455915
-4.9978375 3.1181445 -2.4605403
-5.0690742 3.1258368 -2.48752
-5.0649509 3.1465247 -2.4906032
-5.0482311 3.1593874 -2.48752
-5.0070634 3.0575221 -2.4505191
-5.0178685 3.0858059 -2.4605403
-5.0980759 3.0996773 -2.4921448
-5.0835915 3.1127872 -2.4898324
-5.036181 3.0093193 -2.4505191
-5.0219593 3.0222702 -2.4482067
-5.0119095 3.0389073 -2.4482067
-5.1179852 3.0666916 -2.4921448
-5.1030483 3.0807855 -2.4898324
-5.1408615 3.0354538 -2.4936867
-5.1249552 3.0478163 -2.4906032
-5.1633697 2.9822743 -2.4906032
-5.1571651 3.0003371 -2.4921448
-5.1471877 3.0174212 -2.4921448
-5.1921444 2.9543445 -2.4952283
-5.1764331 2.9669707 -2.4921448
-5.2127247 2.9216554 -2.4959991
-5.2014008 2.9380181 -2.4952283
-5.229867 2.8870413 -2.4952283
-5.2186518 2.9034715 -2.4944572
-5.2622123 2.8393342 -2.497541
-5.2462826 2.8532422 -2.4944572
-5.2372923 2.8697114 -2.4944572
-5.2885861 2.8096235 -2.501395
-5.2776132 2.8262746 -2.5006242
-5.3082542 2.7762687 -2.5021658
-5.300653 2.7947149 -2.5029368
-5.3293548 2.7436197 -2.5037076
-5.3185892 2.7604275 -2.5029368
-5.3304982 2.7008071 -2.4959991
-5.3264427 2.7209878 -2.4983118
-5.3490996 2.6471756 -2.4929159
-5.3440599 2.6656137 -2.4944572
-5.3439026 2.6865354 -2.4983118
-5.3648791 2.6108332 -2.4921448
-5.3561916 2.6286094 -2.4921448
-5.371191 2.5722899 -2.48752
-5.3647451 2.5899539 -2.4882905
-5.3998208 2.5421126 -2.4929159
-5.3809123 2.5561948 -2.4882905
-5.3967066 2.4787841 -2.4805822
-5.3855433 2.4941754 -2.4790404
-5.397747 2.5204523 -2.4882905
-5.4130278 2.4429371 -2.4805822
-5.39607 2.4579926 -2.476728
-5.4248962 2.407382 -2.4790404
-5.4206753 2.4259207 -2.4805822
-5.4403296 2.372299 -2.4790404
-5.4227138 2.3849208 -2.4744153
-5.4611526 2.3192463 -2.4782696
-5.4606242 2.3392985 -2.481353
-5.4380021 2.3498526 -2.4744153
-5.4726086 2.2825115 -2.476728
-5.4722147 2.3025548 -2.4798114
-5.4991894 2.2520175 -2.4821241
-5.4886751 2.2678745 -2.4805822
-5.5084801 2.2143943 -2.4798114
-5.5028167 2.2333431 -2.4805822
-5.5260978 2.1801317 -2.481353
-5.5188379 2.1984448 -2.481353
-5.5588336 2.1316099 -2.4867489
-5.5348992 2.1424 -2.4790404
-1.1877542 -5.0323992 -2.3021295
-1.2035577 -5.0286431 -2.3021295
-1.2184882 -5.021286 -2.3005025
-1.153128 -5.0348229 -2.2996891
-1.1710595 -5.0363107 -2.3021295
-1.1238512 -5.05267 -2.30457
-1.1385124 -5.0437679 -2.3021295
-1.0885031 -5.0473199 -2.2988756
-1.106017 -5.0472517 -2.3005025
-1.0396348 -5.0557466 -2.2980621
-1.0547651 -5.0488787 -2.2964354
-1.0721387 -5.0526886 -2.2996891
-1.0076778 -5.065938 -2.2996891
-1.0237464 -5.0589876 -2.2980621
-0.97425246 -5.0687518 -2.2980621
-0.99122339 -5.0710454 -2.3005025
-0.93983364 -5.0659552 -2.2939949
-0.95574379 -5.0629778 -2.2939949
-0.88964421 -5.0712996 -2.2923677
-0.9080649 -5.0773149 -2.2964354
-0.92522407 -5.0760727 -2.2972486
-0.8586762 -5.0821939 -2.2948081
-0.87401772 -5.07587 -2.2931814
-0.82582867 -5.0931878 -2.2972486
-0.84300429 -5.086669 -2.2956216
-0.79324913 -5.0946655 -2.2956216
-0.80838984 -5.0867348 -2.2931814
-0.74183691 -5.0913267 -2.290741
-0.7617619 -5.1031632 -2.2972486
-0.77723956 -5.0971322 -2.2956216
-0.70983279 -5.0958872 -2.290741
-0.72635359 -5.09725 -2.2923677
-0.67474663 -5.0840645 -2.2834196
-0.69342226 -5.1018343 -2.2923677
-0.64441633 -5.1082554 -2.2923677
-0.65975827 -5.10077 -2.2899272
-0.59471834 -5.1087613 -2.2899272
-0.60989738 -5.0996108 -2.2866735
-0.62702757 -5.0993743 -2.2874868
-0.56011903 -5.0979662 -2.2834196
-0.57510537 -5.0871038 -2.2793522
-0.52793777 -5.1087465 -2.2866735
-0.54487568 -5.1069674 -2.2866735
-0.49335107 -5.0956821 -2.2793522
-0.51115692 -5.1031084 -2.2834196
-0.44298652 -5.0838013 -2.2720311
-0.46092764 -5.1042204 -2.2817926
-0.47751081 -5.0990262 -2.2801657
-0.41073531 -5.0938411 -2.275285
-0.42749912 -5.1016288 -2.2793522
-0.37823778 -5.1018534 -2.2777255
-0.3954365 -5.1042137 -2.2793522
-0.34580326 -5.0986605 -2.275285
-0.36169031 -5.095726 -2.2744715
-0.29468483 -5.0799079 -2.2655232
-0.31120032 -5.0880756 -2.2695906
-0.32818788 -5.0888395 -2.2704041
-0.26342177 -5.0944319 -2.2712173
-0.27982506 -5.1008768 -2.2744715
-0.23003952 -5.1051936 -2.275285
-0.24581251 -5.0989704 -2.2728446
-0.19824153 -5.1138406 -2.2785387
-0.21369429 -5.0985889 -2.2720311
-0.14745702 -5.0881391 -2.2663367
-0.16402742 -5.1059122 -2.2744715
-0.1805702 -5.0943847 -2.2695906
-0.11467882 -5.0926385 -2.2679636
-0.1314712 -5.0885773 -2.2663367
-0.081730723 -5.0896192 -2.2663367
-0.098856628 -5.1021075 -2.2720311
-0.048984859 -5.1028299 -2.2720311
-0.065599613 -5.0788894 -2.261456
-0.016904008 -5.0975556 -2.2695906
-0.032870788 -5.090169 -2.2663367
0.032918755 -5.0974774 -2.2695906
0.015968611 -5.0829415 -2.2630827
-2.2298218e-07 -5.1012378 -2.2712173
0.064876348 -5.0916891 -2.2671502
0.048933014 -5.0973487 -2.2695906
0.098714605 -5.0948005 -2.2687771
0.081672825 -5.0859656 -2.2647097
0.13063078 -5.0904264 -2.2671502
0.11467899 -5.0926385 -2.2679636
0.18018205 -5.0834289 -2.2647097
0.16462375 -5.0967531 -2.2704041
0.14751072 -5.0899653 -2.2671502
0.21181352 -5.0748944 -2.261456
0.19601052 -5.079186 -2.2630827
0.24546698 -5.0733781 -2.261456
0.22872376 -5.0759897 -2.2622693
0.27773848 -5.0790334 -2.2647097
0.26140448 -5.0725818 -2.261456
0.32689515 -5.0687828 -2.261456
0.31041911 -5.0753102 -2.2638962
0.29436755 -5.0744357 -2.2630827
0.36013877 -5.0738564 -2.2647097
0.34331107 -5.0750227 -2.2647097
0.3921515 -5.0733147 -2.2655232
0.37472633 -5.0544786 -2.2565751
0.425179 -5.0633197 -2.2622693
0.40794533 -5.0592384 -2.2598288
0.47185993 -5.0481725 -2.2573884
0.45665538 -5.0569086 -2.2606423
0.44060817 -5.0564985 -2.2598288
0.50624037 -5.0540223 -2.261456
0.48877335 -5.0483985 -2.2582018
0.53740484 -5.0452914 -2.2590156
0.51986206 -5.0305977 -2.2516942
0.570032 -5.0343547 -2.2557616
0.55205733 -5.032681 -2.2541347
0.61900091 -5.0340905 -2.2582018
0.60056794 -5.0216022 -2.2516942
0.58711284 -5.043427 -2.2606423
0.65243512 -5.0372357 -2.261456
0.6341266 -5.0266833 -2.2557616
0.68136561 -5.0131221 -2.2525077
0.66753596 -5.0297279 -2.2590156
0.71527034 -5.0194707 -2.2573884
0.69974953 -5.0235028 -2.2582018
0.76066911 -4.9943109 -2.2492537
0.74605334 -5.0039039 -2.2525077
0.73270297 -5.0224953 -2.2598288
0.79605913 -5.0091434 -2.2582018
0.77919388 -5.0043983 -2.2549479
0.82866621 -5.0001488 -2.2565751
0.81149483 -4.9992619 -2.2549479
0.86099654 -5.0002451 -2.2590156
0.84345764 -4.992116 -2.2541347
0.90622234 -4.9718189 -2.2500672
0.89101684 -4.9819913 -2.2533212
0.87567675 -4.9865651 -2.2541347
0.93710411 -4.9642315 -2.2492537
0.92183691 -4.9689474 -2.2500672
0.97070873 -4.9614935 -2.2508807
0.95407349 -4.9684401 -2.2525077
1.0029495 -4.9606695 -2.2533212
0.98522174 -4.9530435 -2.2484403
1.0483497 -4.9363317 -2.2468133
1.0327215 -4.9433579 -2.2484403
1.0159553 -4.9449658 -2.2476268
1.0816888 -4.9403563 -2.2516942
1.0646224 -4.9365859 -2.2484403
1.111156 -4.9225745 -2.2468133
1.092844 -4.9173145 -2.2427461
1.1429217 -4.9152966 -2.2468133
1.1282903 -4.9224243 -2.2484403
1.1900512 -4.904099 -2.2468133
1.1763395 -4.9149208 -2.2500672
1.1587769 -4.9134603 -2.2476268
1.2221377 -4.8980846 -2.2476268
1.2076176 -4.905448 -2.2492537
1.2541965 -4.89186 -2.2484403
1.2392701 -4.8975472 -2.2492537
1.2820387 -4.869523 -2.2419324
1.265425 -4.8719797 -2.2411189
1.3129811 -4.8593793 -2.2411189
1.2982717 -4.8690028 -2.2435594
1.3635142 -4.8606257 -2.2476268
1.3459262 -4.859838 -2.2451866
1.332948 -4.8690968 -2.2476268
1.3923502 -4.8429394 -2.2435594
1.3781273 -4.8508048 -2.2451866
1.4220473 -4.8285885 -2.2411189
1.4095995 -4.8455586 -2.2468133
1.4646008 -4.8024826 -2.2354248
1.4553081 -4.8263021 -2.2443728
1.441705 -4.8361034 -2.2468133
1.4990979 -4.8071394 -2.2419324
1.4850658 -4.8153172 -2.2435594
1.5331694 -4.8040538 -2.2451866
1.5164198 -4.8036199 -2.2427461
1.5599256 -4.7839031 -2.2403057
1.5432056 -4.7835636 -2.2378652
1.5904629 -4.7699857 -2.2386785
1.5769249 -4.7821741 -2.2419324
1.6403388 -4.766592 -2.2443728
1.6245236 -4.7720056 -2.2443728
1.6089405 -4.7753544 -2.2435594
1.672297 -4.7593479 -2.2459998
1.6535052 -4.7562385 -2.2419324
1.6972359 -4.7349868 -2.2394919
1.687852 -4.7557926 -2.2468133
1.7252672 -4.7170644 -2.236238
1.7147952 -4.7344861 -2.2419324
1.7757982 -4.7119446 -2.2419324
1.7601628 -4.7178078 -2.2419324
1.745966 -4.7250285 -2.2427461
1.8020936 -4.6921663 -2.2378652
1.7912425 -4.7080507 -2.2427461
1.8343551 -4.685535 -2.2403057
1.8189651 -4.6895709 -2.2394919
1.8772002 -4.6626263 -2.2378652
1.8638967 -4.6718946 -2.2394919
1.8512257 -4.6828241 -2.2419324
1.9073893 -4.6483836 -2.2370517
1.8947158 -4.6614532 -2.2403057
1.935149 -4.6329355 -2.2354248
1.921284 -4.6406803 -2.236238
1.9644026 -4.6166363 -2.2337978
1.9526312 -4.6315436 -2.2378652
1.9940974 -4.6058798 -2.2346113
1.9767345 -4.6054053 -2.2313573
2.0367334 -4.5831866 -2.2329843
2.0259428 -4.5999479 -2.2378652
2.0085568 -4.5995927 -2.2346113
2.0662878 -4.5699387 -2.2329843
2.0601432 -4.5947461 -2.2419324
2.0934343 -4.553545 -2.2313573
2.0776026 -4.5567746 -2.2297304
2.1266851 -4.5461812 -2.2346113
2.1077781 -4.5428953 -2.2297304
2.1686463 -4.5222621 -2.2329843
2.1536381 -4.529429 -2.2329843
2.144074 -4.5460877 -2.2378652
2.1954026 -4.5032368 -2.2305439
2.2260597 -4.49224 -2.2321708
2.2127624 -4.5028758 -2.2337978
2.2525568 -4.4728756 -2.2297304
2.2336304 -4.4721479 -2.2256629
2.2928772 -4.4461746 -2.2272899
2.2822807 -4.4618869 -2.2313573
2.2682517 -4.4690351 -2.2313573
2.3223894 -4.4328942 -2.2281034
2.310204 -4.4454346 -2.2305439
2.3501084 -4.4161916 -2.2272899
2.3345981 -4.4223447 -2.2264767
2.384757 -4.4141979 -2.2337978
2.3639703 -4.4087868 -2.2272899
2.4207132 -4.3778877 -2.2272899
2.4051902 -4.382268 -2.2256629
2.3985085 -4.4046612 -2.2329843
2.4525115 -4.3685374 -2.2305439
2.432677 -4.3670692 -2.2256629
2.4743378 -4.3414974 -2.2248495
2.466085 -4.3587899 -2.2297304
2.5061409 -4.3337731 -2.2289169
2.4852359 -4.3289485 -2.222409
2.5483785 -4.3090715 -2.2289169
2.532053 -4.3123302 -2.2264767
2.5188236 -4.3242998 -2.2281034
2.5725827 -4.2882748 -2.2264767
2.5553579 -4.2900562 -2.2232225
2.6028671 -4.2742395 -2.2281034
2.587734 -4.2812834 -2.2272899
2.6325517 -4.2624645 -2.2305439
2.6143723 -4.2629261 -2.2264767
2.6643341 -4.2210803 -2.222409
2.6495831 -4.2303553 -2.222409
2.6411049 -4.2464156 -2.2264767
2.6917877 -4.2057953 -2.2232225
2.684442 -4.2234831 -2.2281034
2.7188909 -4.1883249 -2.2232225
2.7086902 -4.2014532 -2.2256629
2.7509048 -4.1783104 -2.2272899
2.7327652 -4.1792855 -2.2232225
2.7857895 -4.1441298 -2.2232225
2.7760894 -4.1594238 -2.2264767
2.7589703 -4.1620331 -2.2232225
2.8207262 -4.1381311 -2.2297304
2.8025901 -4.1394076 -2.2256629
2.8321311 -4.0992823 -2.2183418
2.8285432 -4.121717 -2.2256629
2.8644984 -4.0878901 -2.222409
2.8467526 -4.0913672 -2.2191553
2.9039605 -4.0621977 -2.2232225
2.8922427 -4.0727906 -2.2240362
2.8710077 -4.0699124 -2.2175283
2.9308381 -4.0428486 -2.2232225
2.9142127 -4.0480971 -2.220782
2.9558024 -4.0223656 -2.222409
2.9424477 -4.0321455 -2.222409
2.9842908 -4.008111 -2.2248495
2.9640784 -4.007184 -2.2191553
3.0200059 -3.9743881 -2.222409
3.0068099 -3.9843807 -2.222409
2.9920855 -3.9908831 -2.220782
3.0393453 -3.9480956 -2.2183418
3.0291467 -3.9605269 -2.2199686
3.0681489 -3.9327073 -2.220782
3.0568986 -3.9437711 -2.2215958
3.0957472 -3.915679 -2.222409
3.0811734 -3.9225111 -2.220782
3.1373112 -3.8895016 -2.2248495
3.1182213 -3.890784 -2.2199686
3.1023455 -3.8987858 -2.2183418
3.1612072 -3.8677461 -2.2240362
3.1391513 -3.8668594 -2.2175283
3.184952 -3.845844 -2.2232225
3.1680269 -3.8527043 -2.220782
3.2137501 -3.8313563 -2.2264767
3.1970184 -3.835819 -2.2232225
3.2451041 -3.7928214 -2.222409
3.2289593 -3.7993848 -2.2199686
3.2151639 -3.8086755 -2.2191553
3.2760499 -3.780642 -2.2272899
3.2677329 -3.7950687 -2.2297304
3.2961242 -3.7558634 -2.2248495
3.2879109 -3.7703314 -2.2272899
3.3258183 -3.7393813 -2.2281034
3.3049321 -3.7408047 -2.222409
3.3541958 -3.6991627 -2.2232225
3.3382423 -3.7061923 -2.220782
3.3278015 -3.7180235 -2.2215958
3.3767781 -3.67608 -2.222409
3.3701398 -3.6920681 -2.2256629
3.4122534 -3.6681683 -2.2305439
3.3932712 -3.67082 -2.2256629
3.4302402 -3.6388094 -2.2264767
3.411274 -3.6440916 -2.222409
3.4713414 -3.6123013 -2.2305439
3.4542968 -3.6185064 -2.2272899
3.4454269 -3.6319919 -2.2289169
3.4869492 -3.581954 -2.2256629
3.4839427 -3.6026912 -2.2313573
3.5132341 -3.5638781 -2.2281034
3.5032995 -3.5762029 -2.2289169
3.5374668 -3.5424087 -2.2289169
3.5224593 -3.5496142 -2.2264767
3.5700042 -3.5070088 -2.2281034
3.5589693 -3.5182068 -2.2281034
3.5427175 -3.5242162 -2.2248495
3.5899539 -3.481338 -2.2264767
3.5855372 -3.4989791 -2.2305439
3.6248438 -3.4688206 -2.2337978
3.6106896 -3.4782875 -2.2321708
3.6478958 -3.447232 -2.2346113
3.6383719 -3.4599338 -2.2354248
3.6834979 -3.4145405 -2.236238
3.6754246 -3.4285884 -2.2378652
3.6726284 -3.4476211 -2.2427461
3.7216463 -3.4054837 -2.2459998
3.7028651 -3.4097328 -2.2411189
3.7462721 -3.3838289 -2.2476268
3.7269197 -3.3888586 -2.2427461
3.7598634 -3.3522708 -2.2427461
3.7561128 -3.3701668 -2.2468133
3.7849658 -3.3322031 -2.2451866
3.7744784 -3.3440776 -2.2451866
3.8270345 -3.3034072 -2.2508807
3.809741 -3.3094234 -2.2468133
3.7849922 -3.3100107 -2.2386785
3.8463237 -3.2781112 -2.2500672
3.83462 -3.2889891 -2.2492537
3.8609886 -3.24665 -2.2459998
3.8627517 -3.270061 -2.2533212
3.8998721 -3.2170935 -2.2508807
3.8860919 -3.2251499 -2.2484403
3.8865921 -3.2473905 -2.2549479
3.9140375 -3.1853917 -2.2468133
3.9396718 -3.1653132 -2.2500672
3.9197628 -3.1696329 -2.2443728
3.966306 -3.1436551 -2.2533212
3.9472904 -3.1499527 -2.2484403
3.996052 -3.1265533 -2.2590156
3.9948232 -3.145874 -2.2638962
4.0307689 -3.0906827 -2.261456
4.0262823 -3.1084986 -2.2647097
4.0015273 -3.1106198 -2.2565751
4.0282555 -3.0487566 -2.2492537
4.0448194 -3.0813265 -2.2638962
4.0800667 -3.0467303 -2.2671502
4.0626392 -3.0547531 -2.2630827
4.1040692 -3.0235703 -2.2695906
4.0930829 -3.0353599 -2.2687771
4.1432734 -2.9915218 -2.275285
4.1436749 -3.0127664 -2.2809792
4.1268172 -3.0203736 -2.2769117
4.1565523 -2.9604638 -2.2720311
4.1457462 -2.9724426 -2.2712173
4.1785731 -2.9356611 -2.2736578
4.1628494 -2.9452806 -2.2704041
4.182426 -2.8982091 -2.2655232
4.1787853 -2.9162455 -2.2687771
4.222147 -2.8661375 -2.2720311
4.2065864 -2.8759983 -2.2687771
4.1960254 -2.8881633 -2.2679636
4.2344947 -2.8347471 -2.2687771
4.2281013 -2.8508165 -2.2704041
4.2308769 -2.7939892 -2.2573884
4.2388148 -2.8183949 -2.2663367
4.2733297 -2.7825611 -2.2704041
4.2640786 -2.7967167 -2.2704041
4.3044648 -2.7443593 -2.2728446
4.2896714 -2.7539203 -2.2695906
4.2809987 -2.7673833 -2.2695906
4.3298316 -2.7213662 -2.2769117
4.3161521 -2.7327776 -2.2744715
4.3504214 -2.6952734 -2.2785387
4.3310819 -2.7021577 -2.2728446
4.3505831 -2.6566498 -2.2695906
4.352643 -2.6777637 -2.275285
4.3790212 -2.6166394 -2.2712173
4.3817372 -2.6369786 -2.2769117
4.3698444 -2.6495996 -2.275285
4.4084229 -2.5957229 -2.2777255
4.3903627 -2.6047339 -2.2728446
4.4250932 -2.5672009 -2.2777255
4.4039369 -2.5744841 -2.2712173
4.4490662 -2.5438812 -2.2817926
4.4394698 -2.5569339 -2.2809792
5.2118878 -0.6695075 -2.3395493
5.1953864 -0.68306309 -2.3330414
5.2615561 -0.64044559 -2.3598859
5.2468266 -0.65538681 -2.3541918
5.2691069 -0.60779256 -2.3615131
5.2617278 -0.62369764 -2.3590727
5.2729778 -0.55607337 -2.3606997
5.2693882 -0.57243872 -2.3598859
5.2620144 -0.5892995 -2.3574457
1.4283973 5.5073395 -2.5331559
1.4461581 5.5045919 -2.5339694
1.3878825 5.4969621 -2.5242078
1.4087691 5.5067348 -2.5307155
1.3506123 5.498713 -2.5209539
1.3661878 5.4835668 -2.516073
1.2973487 5.5096455 -2.5201402
1.3159233 5.5108743 -2.5225806
1.3346227 5.508256 -2.5233943
1.261337 5.5161271 -2.5193269
1.2804476 5.5154743 -2.5209539
1.2252905 5.5223742 -2.5185134
1.2438393 5.5238452 -2.5209539
1.1903713 5.5337443 -2.5201402
1.2098873 5.5351205 -2.5225806
1.1397673 5.557445 -2.5258348
1.1552075 5.5393252 -2.5193269
1.173739 5.5410314 -2.5217674
1.104213 5.5664806 -2.5266483
1.1223035 5.560998 -2.5258348
1.0702457 5.5786924 -2.5290885
1.0853215 5.5627489 -2.5233943
1.0332022 5.5800977 -2.5266483
1.0500499 5.5732336 -2.5250211
0.97769868 5.5789599 -2.5217674
0.99554056 5.5776596 -2.5225806
1.0117506 5.5673146 -2.5193269
0.94073933 5.5797524 -2.5193269
0.95764405 5.5731683 -2.5177
0.90497911 5.5875149 -2.5201402
0.92550772 5.6026702 -2.528275
0.87027979 5.6022696 -2.5242078
0.88913816 5.6011577 -2.5250211
0.81409508 5.5940933 -2.5168865
0.83193314 5.5933151 -2.5177
0.85004884 5.5942869 -2.5193269
0.77971554 5.6119008 -2.5225806
0.79656947 5.6039972 -2.5201402
0.74202037 5.6059513 -2.5177
0.76011109 5.5998397 -2.516073
0.70541215 5.599627 -2.5128191
0.72416949 5.6064434 -2.5168865
0.66717666 5.5951109 -2.5087516
0.68706 5.6037488 -2.5136325
0.61680365 5.6229448 -2.5185134
0.63262284 5.6046391 -2.5111921
0.6506474 5.6062541 -2.5128191
0.57856393 5.6178246 -2.514446
0.59796447 5.6231418 -2.5177
0.54343015 5.6231675 -2.5152595
0.56018472 5.6123424 -2.5111921
0.50596005 5.6248283 -2.514446
0.52491266 5.6157508 -2.5111921
0.45106634 5.6184978 -2.5095651
0.4699989 5.6206131 -2.5111921
0.48765588 5.6191087 -2.5111921
0.41629422 5.6285105 -2.5128191
0.4349556 5.627099 -2.5128191
0.37969193 5.6274347 -2.5111921
0.39788565 5.6335044 -2.514446
0.3437883 5.6370645 -2.514446
0.36177748 5.6249533 -2.5095651
0.28919604 5.6309814 -2.5103788
0.30728152 5.6373425 -2.5136325
0.32467365 5.630877 -2.5111921
0.25397131 5.6363373 -2.5120056
0.27176404 5.6373377 -2.5128191
0.21637355 5.6324205 -2.5095651
0.23528026 5.6371484 -2.5120056
0.16333655 5.6360369 -2.5103788
0.18068878 5.6245384 -2.5054979
0.19867881 5.6330724 -2.5095651
0.12611644 5.6443024 -2.5136325
0.14478493 5.6420269 -2.5128191
0.090764083 5.6522908 -2.5168865
0.10827959 5.6391902 -2.5111921
0.053208336 5.6454601 -2.5136325
0.072913155 5.6452403 -2.5136325
0.017718274 5.6402016 -2.5111921
0.035493702 5.6492538 -2.5152595
-0.037371159 5.6346245 -2.5087516
-0.01869305 5.6365442 -2.5095651
-0.00098619214 5.6511922 -2.516073
-0.072962917 5.6488943 -2.5152595
-0.055089425 5.6363063 -2.5095651
-0.10933442 5.6428251 -2.5128191
-0.09053465 5.6376762 -2.5103788
-0.14614967 5.6566129 -2.5193269
-0.1280891 5.644258 -2.5136325
-0.19972649 5.6348643 -2.5103788
-0.18115795 5.6391473 -2.5120056
-0.16349521 5.6415157 -2.5128191
-0.23626393 5.6371074 -2.5120056
-0.21869594 5.6414738 -2.5136325
-0.2720305 5.6428123 -2.5152595
-0.25446734 5.6472893 -2.5168865
-0.30864859 5.6262889 -2.5087516
-0.29064879 5.6400542 -2.514446
-0.3625983 5.6377168 -2.5152595
-0.34443995 5.6315327 -2.5120056
-0.32695904 5.6362357 -2.5136325
-0.39920506 5.6242533 -2.5103788
-0.38116717 5.6346602 -2.514446
-0.43509895 5.6289201 -2.5136325
-0.41714391 5.6266146 -2.5120056
-0.47159266 5.6278138 -2.514446
-0.45376426 5.6274462 -2.5136325
-0.52236187 5.5884628 -2.4989901
-0.50513238 5.5937161 -2.500617
-0.55898261 5.5904279 -2.5014303
-0.53991753 5.5867944 -2.4989901
-0.59139842 5.5521817 -2.4859746
-0.62867749 5.560956 -2.4916689
-0.60883713 5.5502968 -2.4859746
-0.67935383 5.5329037 -2.4819071
-0.66262031 5.5404525 -2.4843476
-0.71835107 5.5537691 -2.4932957
-0.75469577 5.5526347 -2.4949226
-0.73555666 5.5496731 -2.4924822
-0.7905376 5.5476451 -2.4949226
-0.77188343 5.5484271 -2.4941092
-0.84265035 5.5325766 -2.4916689
-0.82456923 5.5371475 -2.4924822
-0.80690736 5.5379028 -2.4916689
-0.87434614 5.5017576 -2.4802802
-0.86002618 5.5299025 -2.4916689
-0.90561861 5.476326 -2.4713318
-0.88987046 5.4881625 -2.4753995
-0.93817699 5.4541578 -2.4640107
-0.92195088 5.4624829 -2.4664512
-0.99179655 5.4520917 -2.4672647
-0.97819942 5.4749651 -2.4762127
-0.95499456 5.4438186 -2.4607568
-1.0229183 5.4240284 -2.4575028
-1.0102029 5.4505696 -2.4680781
-1.0641271 5.4440222 -2.4697051
-1.0990382 5.4408092 -2.4713318
-1.0799209 5.4390483 -2.4688914
-1.1489381 5.4192853 -2.4664512
-1.132655 5.4264455 -2.4680781
-1.1170735 5.4371352 -2.4713318
-1.1852484 5.4133306 -2.4672647
-1.1669043 5.4154458 -2.4664512
-1.2212456 5.4146886 -2.4713318
-1.2030408 5.4131474 -2.4688914
-1.251938 5.3926706 -2.4648242
-1.2345836 5.3947959 -2.4640107
-1.3080282 5.394382 -2.4713318
-1.2876761 5.3842487 -2.4648242
-1.2711751 5.3900456 -2.4656377
-1.3384165 5.3680944 -2.4631972
-1.3219148 5.3778267 -2.4656377
-1.3730544 5.3593392 -2.4631972
-1.3584487 5.3724837 -2.4672647
-1.4085597 5.3576746 -2.4664512
-1.3885063 5.3496938 -2.4607568
-1.4598924 5.340127 -2.4648242
-1.444536 5.3499794 -2.4672647
-1.4277288 5.3582706 -2.4688914
-1.4918813 5.3217916 -2.4607568
-1.4766606 5.3355145 -2.4648242
-1.5267191 5.3138037 -2.4615703
-1.5125813 5.3311405 -2.4672647
-1.5464671 5.3195071 -2.4664512
-1.6065181 5.2711267 -2.4534354
-1.5895551 5.2781749 -2.4542491
-1.5760946 5.2936492 -2.45913
-1.6465079 5.2798295 -2.4623837
-1.6311414 5.2922449 -2.4656377
-1.6774276 5.2624173 -2.45913
-1.6702281 5.2972836 -2.472959
-1.7134253 5.2546501 -2.4607568
-1.6965528 5.2620425 -2.4615703
-1.7789459 5.2829814 -2.4819071
-1.7608409 5.287118 -2.4810936
-1.7436489 5.2908888 -2.4802802
-1.8100538 5.2627449 -2.4778397
-1.7902391 5.2617989 -2.4745858
-1.8358243 5.2305803 -2.4680781
-1.8235791 5.2484026 -2.4737723
-1.8514609 5.292861 -2.4965496
-1.8788068 5.2444162 -2.4802802
-1.8595725 5.2454519 -2.4778397
-1.9028019 5.2765641 -2.4973631
-1.8856024 5.2807941 -2.4965496
-1.8632091 5.2732372 -2.4900417
-1.9315926 5.232996 -2.4835341
-1.9088687 5.221879 -2.4753995
-1.8899676 5.2209773 -2.4721453
-1.9330516 5.2538772 -2.4924822
-1.9168701 5.2636924 -2.4941092
-1.9675449 5.2234898 -2.4851608
-1.9518503 5.2371745 -2.488415
-1.9669396 5.2412848 -2.4924822
-1.9559094 5.2649064 -2.500617
-2.0081811 5.2314939 -2.4949226
-1.9871912 5.2258224 -2.4892285
-2.0030966 5.2373552 -2.4965496
-1.9853368 5.2402058 -2.4949226
-2.0336921 5.2000551 -2.4859746
-2.0054643 5.1757517 -2.4713318
-2.0521805 5.2124276 -2.4941092
-2.0388649 5.2294178 -2.4989901
-2.0188813 5.2293324 -2.4957361
-2.0885103 5.1900997 -2.4908552
-2.069489 5.189847 -2.4876013
-2.0515976 5.1949816 -2.486788
-2.0896485 5.2113023 -2.4998035
-2.0712435 5.2127471 -2.4973631
-2.1190019 5.171803 -2.488415
-2.1036484 5.1780677 -2.488415
-2.1204946 5.1909332 -2.4965496
-2.1048629 5.1992626 -2.4973631
-2.1525521 5.1559496 -2.4876013
-2.1333487 5.1579938 -2.4851608
-2.158885 5.18894 -2.502244
-2.1363049 5.1804938 -2.4949226
-2.1863348 5.1456861 -2.4892285
-2.1694503 5.1508451 -2.488415
-2.2006965 5.1494966 -2.4932957
-2.1859343 5.159749 -2.4949226
-2.1723461 5.1753931 -2.4989901
-2.2416382 5.1357932 -2.4949226
-2.2167861 5.1226883 -2.4851608
-2.1997876 5.1300106 -2.4851608
-2.2360911 5.140204 -2.4957361
-2.2155912 5.137136 -2.4908552
-2.2723806 5.118268 -2.4932957
-2.2481933 5.106986 -2.4843476
-2.2714577 5.1306686 -2.4981766
-2.2523913 5.1310863 -2.4949226
-2.3025143 5.0947595 -2.4892285
-2.2817307 5.0960951 -2.4859746
-2.3015413 5.1092291 -2.4949226
-2.2875664 5.1235065 -2.4981766
-2.3291402 5.0685706 -2.4835341
-2.3162346 5.0825133 -2.486788
-2.3520119 5.0902185 -2.4965496
-2.3344874 5.0942602 -2.4949226
-2.3153131 5.0969834 -2.4924822
-2.3871369 5.0637431 -2.4924822
-2.3672359 5.065011 -2.4892285
-2.3481236 5.0678596 -2.486788
-2.3887196 5.0831919 -2.500617
-2.3687649 5.0844603 -2.4973631
-2.4102225 5.030519 -2.4835341
-2.3991108 5.0479684 -2.488415
-2.418345 5.0610662 -2.4973631
-2.3993015 5.0620351 -2.4941092
-2.4474561 5.0247064 -2.488415
-2.4316595 5.0323706 -2.488415
-2.4445882 5.0321965 -2.4908552
-2.4310601 5.0468597 -2.4941092
-2.4749918 4.998971 -2.4835341
-2.4641066 5.016562 -2.488415
-2.4992952 5.021584 -2.4973631
-2.4818878 5.0261345 -2.4957361
-2.4603865 5.0244908 -2.4908552
-2.5311244 4.9912801 -2.4916689
-2.5154324 4.9992065 -2.4916689
-2.4923151 4.9944415 -2.4851608
-2.5316198 5.0074124 -2.4981766
-2.5109615 5.0055418 -2.4932957
-2.5641432 4.9764533 -2.4924822
-2.5426731 4.9730978 -2.486788
-2.5597661 4.9807606 -2.4932957
-2.5432339 4.9892225 -2.4932957
-2.595377 4.9581738 -2.4916689
-2.5772619 4.9614382 -2.4892285
-2.590163 4.9629598 -2.4924822
-2.5753999 4.9726949 -2.4932957
-2.6273415 4.9413099 -2.4916689
-2.6092372 4.9467621 -2.4900417
-2.6445732 4.948688 -2.4981766
-2.6307266 4.9601994 -2.4998035
-2.613395 4.9693532 -2.4998035
-2.6798918 4.9254918 -2.4965496
-2.6644056 4.9338861 -2.4965496
-2.640265 4.9281993 -2.4892285
-2.6764858 4.9335794 -2.4989901
-2.663573 4.9467893 -2.5014303
-2.7054584 4.8968878 -2.4908552
-2.6944754 4.9154453 -2.4957361
-2.7073846 4.9125199 -2.4973631
-2.6867135 4.9155283 -2.4941092
-2.7325556 4.8713474 -2.486788
-2.7207923 4.8862934 -2.4900417
-2.7435491 4.9049792 -2.502244
-2.7192557 4.8976011 -2.4941092
-2.772094 4.8678889 -2.4941092
-2.7496428 4.8659205 -2.488415
-2.7822826 4.8620725 -2.4941092
-2.7661452 4.8712716 -2.4941092
-2.7508264 4.8799386 -2.4941092
-2.8025551 4.8483052 -2.4932957
-2.7800357 4.8444076 -2.486788
-2.8191991 4.8555555 -2.4998035
-2.798455 4.8548913 -2.4949226
-2.8471968 4.8201027 -2.4924822
-2.8311143 4.8274484 -2.4916689
-2.8168547 4.8378968 -2.4924822
-2.846786 4.8309522 -2.4965496
-2.8325937 4.8435206 -2.4981766
-2.8762836 4.796412 -2.4900417
-2.8575573 4.8012147 -2.4876013
-2.8807344 4.8171725 -2.4989901
-2.8571925 4.8120594 -2.4916689
-2.9044647 4.7751231 -2.488415
-2.8932261 4.7904811 -2.4916689
-2.9268444 4.7892971 -2.4989901
-2.9089391 4.7937832 -2.4965496
-2.8996263 4.8143592 -2.502244
-2.9437468 4.7681937 -2.4949226
-2.9260106 4.7748132 -2.4932957
-2.9605975 4.7749557 -2.5014303
-2.9388776 4.7733421 -2.4957361
-2.9905055 4.7433286 -2.4965496
-2.9755878 4.7527008 -2.4965496
-2.9519608 4.7480602 -2.4892285
-2.9903989 4.7541914 -2.500617
-2.977385 4.7666616 -2.502244
-3.0209119 4.7218523 -2.4957361
-3.003279 4.7287588 -2.4941092
-3.016124 4.7270799 -2.4965496
-3.0090804 4.748879 -2.5030575
-3.0435605 4.6920481 -2.4900417
-3.0367219 4.7138739 -2.4965496
-3.0693405 4.710156 -2.5030575
-3.0535364 4.7182412 -2.502244
-3.0368843 4.7268043 -2.5014303
-3.0838389 4.6875596 -2.4981766
-3.066098 4.692637 -2.4957361
-3.0986862 4.6887126 -2.502244
-3.0851266 4.7020168 -2.5038707
-3.1266558 4.6547084 -2.4965496
-3.1120181 4.6645079 -2.4965496
-3.1003749 4.6788306 -2.4989901
-3.1238141 4.6610155 -2.4981766
-3.1121938 4.6753683 -2.500617
-3.161792 4.6419706 -2.500617
-3.1443331 4.6494036 -2.4989901
-3.1561191 4.6458297 -2.500617
-3.1476386 4.6648102 -2.5054979
-3.1917028 4.6214557 -2.500617
-3.1823373 4.6389923 -2.5046844
-3.2180376 4.6387806 -2.5136325
-3.1860547 4.6253514 -2.500617
-3.1787288 4.6458941 -2.5063112
-3.2183347 4.5962596 -2.4981766
-3.2062051 4.6114063 -2.500617
-3.237663 4.6050177 -2.5063112
-3.2127171 4.6001878 -2.4981766
-3.2676201 4.5725861 -2.502244
-3.2479491 4.5753803 -2.4981766
-3.2348652 4.5891123 -2.4998035
-3.2702549 4.5864182 -2.5079384
-3.2539711 4.5957475 -2.5071249
-3.2885032 4.5395532 -2.4957361
-3.2851689 4.5667481 -2.5046844
-3.2901697 4.5518789 -2.500617
-3.2910392 4.5850286 -2.5128191
-3.3220754 4.5241132 -2.4989901
-3.3056936 4.5315747 -2.4973631
-3.3358831 4.523026 -2.502244
-3.3184164 4.5290632 -2.4998035
-3.3068867 4.5465283 -2.5030575
-3.3544943 4.5069623 -2.5014303
-3.3341017 4.510715 -2.4973631
-3.3686092 4.5078325 -2.5054979
-3.3522534 4.5154586 -2.5038707
-3.3865535 4.4600039 -2.4932957
-3.3816466 4.4843378 -2.500617
-3.367543 4.4949389 -2.500617
-3.3951221 4.4810228 -2.5030575
-3.3780477 4.489336 -2.5014303
-3.4119415 4.4336967 -2.4908552
-3.4079843 4.4574571 -2.4981766
-3.4143105 4.4480076 -2.4965496
-3.4025342 4.4616184 -2.4981766
-3.4431026 4.4164944 -2.4932957
-3.4247363 4.4215112 -2.4900417
-3.4418414 4.4244237 -2.4957361
-3.4301603 4.4381056 -2.4973631
-3.4643877 4.3835273 -2.4876013
-3.4596252 4.4058871 -2.4941092
-3.4758325 4.3791246 -2.4892285
-3.4703395 4.4021068 -2.4957361
-3.4576204 4.4144254 -2.4965496
-3.5200655 4.3671412 -2.4973631
-3.4998555 4.3716574 -2.4932957
-3.4815531 4.3769126 -2.4900417
-3.5109098 4.3651299 -2.4941092
-3.4941354 4.3738923 -2.4924822
-3.5343244 4.3273368 -2.4876013
-3.5241654 4.3426762 -2.4900417
-3.5348036 4.3387361 -2.4916689
-3.522306 4.3512387 -2.4924822
-3.559864 4.3016095 -2.4859746
-3.5479009 4.3162127 -2.4876013
-3.5786259 4.3074141 -2.4932957
-3.5650768 4.3186345 -2.4932957
-3.553808 4.3326397 -2.4949226
-3.5875707 4.2785296 -2.4859746
-3.571023 4.2875957 -2.4843476
-3.6118226 4.289175 -2.4965496
-3.5928893 4.2955241 -2.4932957
-3.6320355 4.2480631 -2.488415
-3.6202943 4.2628684 -2.4900417
-3.6045284 4.2714272 -2.488415
-3.625659 4.2511048 -2.4876013
-3.6181912 4.2694449 -2.4916689
-3.6605897 4.2258997 -2.4892285
-3.6394055 4.2297053 -2.4843476
-3.6613963 4.2372818 -2.4932957
-3.6508958 4.2535586 -2.4957361
-3.6858649 4.2014422 -2.488415
-3.6702461 4.2102466 -2.486788
-3.689888 4.2149229 -2.4941092
-3.6766269 4.2264953 -2.4941092
-3.7129192 4.1775532 -2.488415
-3.6949394 4.1837182 -2.4851608
-3.7289593 4.177947 -2.4932957
-3.7053874 4.1793528 -2.486788
-3.7006946 4.2005687 -2.4924822
-3.7540765 4.1430736 -2.4892285
-3.7373731 4.150774 -2.486788
-3.7279704 4.1665792 -2.4892285
-3.7521865 4.1497121 -2.4908552
-3.7452359 4.1682758 -2.4949226
-3.7752917 4.1113563 -2.4851608
-3.7677948 4.1306014 -2.4892285
-3.7794194 4.1274033 -2.4916689
-3.7733054 4.1453543 -2.4957361
-3.7998047 4.0862164 -2.4843476
-3.7881896 4.0994749 -2.4851608
-3.8116801 4.107604 -2.4949226
-3.791846 4.1135044 -2.4908552
-3.8198502 4.0549426 -2.4802802
-3.8195775 4.0802627 -2.488415
-3.8446565 4.0641885 -2.4908552
-3.8223996 4.067596 -2.4851608
-3.8195794 4.0902667 -2.4916689
-3.8706908 4.029274 -2.4876013
-3.8459554 4.0301914 -2.4802802
-3.8413687 4.0522051 -2.4859746
-3.8619721 4.0300431 -2.4851608
-3.8669331 4.060679 -2.4965496
-3.8908353 3.9996352 -2.4843476
-3.8680909 4.0013309 -2.4778397
-3.8961244 4.0148759 -2.4908552
-3.8860295 4.029726 -2.4924822
-3.9082978 3.9646344 -2.4786532
-3.8957119 3.9795592 -2.4794667
-3.9329157 3.9993696 -2.4973631
-3.9145241 4.0071621 -2.4941092
-3.9292579 3.936121 -2.4762127
-3.914299 3.9458516 -2.4745858
-3.9620707 3.9523995 -2.4916689
-3.9437852 3.9603379 -2.488415
-3.9274683 3.9688125 -2.4859746
-3.9779685 3.9077721 -2.4827206
-3.957808 3.9152107 -2.4786532
-3.9428995 3.9250462 -2.4770262
-3.9836054 3.9228861 -2.4892285
-3.9718719 3.937361 -2.4900417
-3.9971964 3.8776128 -2.4794667
-3.9836876 3.8888752 -2.4786532
-4.0101643 3.8983533 -2.4900417
-3.9828515 3.8975725 -2.4810936
-4.0181952 3.847928 -2.4770262
-4.0139794 3.8681405 -2.4819071
-4.0332618 3.8718145 -2.4892285
-4.0237055 3.8870049 -2.4908552
-4.0323377 3.8118589 -2.4705186
-4.0229907 3.8270259 -2.4721453
-4.0735712 3.8347135 -2.4908552
-4.0568542 3.8444309 -2.488415
-4.0487227 3.8609395 -2.4908552
-4.0526662 3.7580674 -2.4607568
-4.0475192 3.777014 -2.4648242
-4.0323081 3.7879133 -2.4631972
-4.0908952 3.8028233 -2.486788
-4.0762582 3.8131609 -2.4851608
-4.080893 3.7355199 -2.4631972
-4.0570436 3.7371802 -2.4558759
-4.1153665 3.7763267 -2.486788
-4.1101933 3.7954345 -2.4908552
-4.0981526 3.7029643 -2.45913
-4.0885534 3.7189925 -2.4607568
-4.145083 3.7545791 -2.4900417
-4.131918 3.7663512 -2.4892285
-4.0974355 3.6545324 -2.4444873
-4.1747513 3.7078202 -2.4859746
-4.1706052 3.7289495 -2.4908552
-4.1487107 3.7342036 -2.4851608
-4.1309524 3.6138284 -2.4436738
-4.1332927 3.6388619 -2.4518087
-4.1054292 3.6372893 -2.4420469
-4.2013559 3.683192 -2.4876013
-4.1904888 3.6983132 -2.488415
-4.1472878 3.5811067 -2.4396064
-4.1346388 3.5929189 -2.4387929
-4.2244153 3.6567214 -2.4876013
-4.2150211 3.6731107 -2.4892285
-4.1731091 3.5566201 -2.4412334
-4.175159 3.5823359 -2.4493682
-4.2354383 3.6186841 -2.4802802
-4.2351322 3.6415024 -2.486788
-4.2163424 3.547976 -2.4534354
-4.1995988 3.5564806 -2.4501815
-4.2818093 3.5865018 -2.486788
-4.2643056 3.5959697 -2.4835341
-4.2607141 3.6171858 -2.488415
-4.2198119 3.4810174 -2.4355392
-4.2130718 3.4977598 -2.4379797
-4.1986456 3.5093679 -2.4363525
-4.2915874 3.5490475 -2.4794667
-4.2902474 3.5706935 -2.4851608
-4.2614336 3.4705884 -2.4469278
-4.2561612 3.4885921 -2.4501815
-4.3265395 3.5324135 -2.486788
-4.326714 3.5552671 -2.4932957
-4.2843571 3.4422503 -2.4469278
-4.2479496 3.4350133 -2.4322853
-4.356987 3.5093699 -2.4908552
-4.3374238 3.5161388 -2.4859746
-4.3130589 3.4209399 -2.4509952
-4.2751603 3.4128141 -2.4355392
-4.3818698 3.4605911 -2.4859746
-4.3861008 3.4876115 -2.4949226
-4.3594313 3.4888163 -2.4859746
-4.3155065 3.3764966 -2.4396064
-4.3114619 3.3964422 -2.4436738
-4.4012432 3.4299769 -2.4843476
-4.3890085 3.4426596 -2.4835341
-4.3680158 3.3504837 -2.4509952
-4.3467588 3.3571322 -2.4453008
-4.3333044 3.3685298 -2.4436738
-4.4218531 3.4003692 -2.4835341
-4.4091077 3.4138958 -2.4827206
-4.3618798 3.3012569 -2.4355392
-4.3828793 3.3400674 -2.4534354
-4.4480853 3.3750575 -2.4859746
-4.4339657 3.3875699 -2.4843476
-4.3933544 3.2806735 -2.4412334
-4.3809915 3.294127 -2.4404202
-4.4832106 3.3343842 -2.4876013
-4.4692039 3.3470423 -2.4859746
-4.4557486 3.3588667 -2.4843476
-4.4359431 3.269264 -2.4534354
-4.4095101 3.2712085 -2.4444873
-4.4987574 3.3010392 -2.4843476
-4.4892554 3.3170259 -2.4851608
-4.4632401 3.2225444 -2.4509952
-4.4613957 3.2437727 -2.4558759
-4.4452858 3.2534564 -2.4526219
-4.5273805 3.2772768 -2.488415
-4.5120583 3.2890437 -2.4859746
-4.4923277 3.200798 -2.4558759
-4.4852195 3.2170258 -2.4575028
-4.5434227 3.2455792 -2.4859746
-4.5272703 3.2555702 -2.4827206
-4.5149527 3.171984 -2.4566896
-4.4999347 3.183773 -2.4542491
-4.5839086 3.2073033 -2.4908552
-4.5782924 3.224844 -2.4932957
-4.5556512 3.2315519 -2.486788
-4.5392976 3.1466765 -2.45913
-4.5278921 3.1598752 -2.4583163
-4.5994601 3.1753244 -2.488415
-4.5825157 3.1837447 -2.4843476
-4.5834413 3.1113956 -2.4664512
-4.5811858 3.1309347 -2.4705186
-4.5647583 3.1419656 -2.4672647
-4.6158872 3.1416657 -2.4859746
-4.6039367 3.1559219 -2.4851608
-4.6013818 3.0815198 -2.4656377
-4.5931935 3.0969806 -2.4664512
-4.6325021 3.1105638 -2.4843476
-4.6211925 3.1240797 -2.4835341
-4.6156187 3.0469081 -2.4623837
-4.6019125 3.060976 -2.4607568
-4.6611557 3.0641353 -2.4835341
-4.646935 3.0757399 -2.4810936
-4.63975 3.0931599 -2.4827206
-4.6346722 3.0178468 -2.4623837
-4.6221118 3.0303888 -2.4607568
-4.6787825 3.0337949 -2.4827206
-4.6692281 3.0484786 -2.4827206
-4.6716495 2.9773154 -2.4664512
-4.6556005 2.9888425 -2.4631972
-4.6395268 3.0002961 -2.4599433
-4.6772456 2.988924 -2.4713318
-4.6790738 3.0131454 -2.4778397
-4.7010932 2.9547091 -2.4721453
-4.6825242 2.9636011 -2.4672647
-4.6912961 2.9565547 -2.4688914
-4.6896987 2.9761724 -2.472959
-4.7216282 2.9252527 -2.472959
-4.7093153 2.9381361 -2.4713318
-4.710638 2.9048076 -2.4640107
-4.7040834 2.9223411 -2.4656377
-4.6943665 2.9379244 -2.4656377
-4.7466588 2.8985081 -2.4762127
-4.7250776 2.9057503 -2.4697051
-4.7194295 2.869457 -2.45913
-4.7244153 2.8928564 -2.4664512
-4.7836728 2.8584354 -2.4810936
-4.7590151 2.8640273 -2.472959
-4.746366 2.8778987 -2.4713318
-4.7425628 2.8417387 -2.4615703
-4.7346768 2.8583944 -2.4623837
-4.7387886 2.7980473 -2.4501815
-4.8018184 2.7734482 -2.4688914
-4.7396746 2.7785258 -2.4461143
-4.7681899 2.7329783 -2.4469278
-4.77986 2.6790411 -2.4396064
-4.7836766 2.7020662 -2.4461143
-4.8058152 2.673784 -2.4485548
-4.8447714 2.6140957 -2.4509952
-4.8071842 2.6144345 -2.4363525
-4.8486185 2.6567423 -2.4615703
-4.8792992 2.592185 -2.4599433
-4.8561797 2.6005881 -2.4526219
-4.8894606 2.5572355 -2.4566896
-4.8647928 2.5649121 -2.4485548
-4.9302402 2.5381505 -2.4688914
-4.9136877 2.5502777 -2.4648242
-4.9579363 2.5120411 -2.4745858
-4.9528332 2.5301311 -2.4762127
-4.94209 2.4457538 -2.4550624
-4.947463 2.4677911 -2.4615703
-4.9647737 2.4161208 -2.4583163
-4.9895387 2.4486706 -2.4745858
-4.9880962 2.388824 -2.4623837
-4.9822116 2.4052773 -2.4631972
-5.012095 2.35958 -2.4664512
-5.0038276 2.3770614 -2.4664512
-5.0590158 2.323678 -2.4786532
-5.0500321 2.3387921 -2.4778397
-5.0327268 2.3500078 -2.472959
-5.0843077 2.2945836 -2.4835341
-5.0613027 2.3055007 -2.4762127
-5.101964 2.2640758 -2.4851608
-5.0898228 2.277854 -2.4827206
-5.123178 2.2340024 -2.488415
-5.1144614 2.249351 -2.4876013
-5.1561584 2.1897211 -2.4941092
-5.1458941 2.2044702 -2.4924822
-5.1355891 2.2191749 -2.4908552
-5.1718769 2.1570828 -2.4949226
-5.1650748 2.1733189 -2.4949226
-5.1856995 2.1236377 -2.4949226
-5.1790018 2.13992 -2.4949226
-5.1976099 2.0894253 -2.4941092
-5.1906524 2.1066499 -2.4941092
-5.2262917 2.0418506 -2.4981766
-5.2211909 2.0598412 -2.4989901
-5.2058449 2.0737634 -2.4949226
-5.2407236 2.0096264 -2.4989901
-5.2292733 2.0241013 -2.4965496
-5.2553024 1.9763857 -2.4998035
-5.2371106 1.9883453 -2.4941092
-5.2610989 1.9398773 -2.4965496
-5.2532659 1.95576 -2.4957361
-5.2794771 1.8892877 -2.4965496
-5.2766199 1.908026 -2.4981766
-5.2705994 1.9245939 -2.4981766
-5.2984648 1.8575714 -2.4998035
-5.2908797 1.8735992 -2.4989901
-5.3068933 1.8221309 -2.4981766
-5.2990961 1.8391204 -2.4973631
-5.3168178 1.7872413 -2.4973631
-5.3180966 1.8062853 -2.500617
-5.3389411 1.737818 -2.4998035
-5.3296776 1.7543705 -2.4981766
-5.320673 1.7699511 -2.4965496
-5.3413467 1.7005326 -2.4957361
-5.3481526 1.7212229 -2.5014303
-5.357451 1.6676331 -2.4981766
-5.3484058 1.6842924 -2.4965496
-5.3611159 1.6308755 -2.4949226
-5.3609171 1.6502575 -2.4973631
-1.3966787 -4.6880541 -2.3154225
-1.4127392 -4.6851277 -2.3162782
-1.3687109 -4.7019448 -2.3179896
-1.3844972 -4.7010899 -2.319701
-1.3398014 -4.7159019 -2.3205566
-1.352612 -4.7047205 -2.3171339
-1.3083537 -4.7209711 -2.318845
-1.3222023 -4.713357 -2.3171339
-1.2629758 -4.7333126 -2.318845
-1.2768965 -4.725832 -2.3171339
-1.2922142 -4.7235408 -2.3179896
-1.2301927 -4.7363358 -2.3162782
-1.244972 -4.728735 -2.3145669
-1.1986357 -4.7369618 -2.3128555
-1.214409 -4.7366757 -2.3145669
-1.1654278 -4.7340722 -2.3077216
-1.1815583 -4.731935 -2.3085773
