# .PCD v0.7 - Point Cloud Data file format
VERSION 0.7
FIELDS x y z
SIZE 4 4 4
TYPE F F F
COUNT 1 1 1
WIDTH 1518
HEIGHT 1
VIEWPOINT 0 0 0 1 0 0 0
POINTS 1518
DATA ascii
3.9868159 -2.8144739 -2.1727874
4.0071535 -2.7726159 -2.1695333
3.9984236 -2.7851913 -2.1695333
4.0269637 -2.7470083 -2.170347
4.010303 -2.7551742 -2.1662796
4.0496364 -2.706903 -2.1687198
4.0441442 -2.721652 -2.170347
4.0310359 -2.7312691 -2.1679065
4.0685577 -2.6817007 -2.1695333
4.0535541 -2.6911354 -2.1662796
4.0919189 -2.6593544 -2.1727874
4.0758996 -2.6671939 -2.1687198
4.0947027 -2.6247175 -2.1654661
4.0971828 -2.6445043 -2.1711602
4.124804 -2.5874844 -2.1679065
4.1166549 -2.6004303 -2.1679065
4.1080089 -2.6140671 -2.1679065
4.1471953 -2.5653613 -2.1711602
4.1282601 -2.5716155 -2.1654661
4.1781597 -2.5463574 -2.1784816
4.1545677 -2.5499136 -2.170347
4.1893783 -2.5172322 -2.1760411
4.1751971 -2.5265975 -2.1727874
4.20748 -2.4724638 -2.1727874
4.2118349 -2.4938498 -2.1792951
4.1894197 -2.4993777 -2.1719737
4.2197695 -2.4441473 -2.1711602
4.2294297 -2.4675195 -2.1801085
4.2481604 -2.4240904 -2.1776681
4.2341871 -2.4337823 -2.1744142
4.26054 -2.3948162 -2.1760411
4.2525754 -2.4089315 -2.1760411
4.2897372 -2.3573279 -2.1792951
4.2739043 -2.3671141 -2.1752276
4.2792115 -2.3876514 -2.1817355
4.2964301 -2.3259792 -2.1752276
4.2971215 -2.3438399 -2.1792951
4.3210344 -2.3033423 -2.1801085
4.3137774 -2.3169057 -2.1801085
4.3277297 -2.2711453 -2.1760411
4.3318796 -2.290709 -2.1817355
4.3542089 -2.2319984 -2.1784816
4.3532763 -2.2497809 -2.1817355
4.3316021 -2.2558503 -2.1744142
4.3783197 -2.2087715 -2.1833622
4.361587 -2.2175472 -2.1784816
4.3777628 -2.1731403 -2.1760411
4.3819695 -2.1933703 -2.1817355
4.41469 -2.1560502 -2.1874297
4.3927636 -2.1634128 -2.1801085
4.4331646 -2.1135612 -2.1866164
4.4050946 -2.1171889 -2.1760411
4.4049988 -2.1342039 -2.1792951
4.4321947 -2.0771351 -2.1792951
4.4269338 -2.092602 -2.1801085
4.4571314 -2.0538225 -2.1849892
4.4353843 -2.0616603 -2.1776681
4.4549704 -2.0189893 -2.1776681
4.4565592 -2.0375502 -2.1817355
4.4841733 -1.9805615 -2.182549
4.4729223 -1.9924089 -2.1801085
4.4783072 -2.0116918 -2.1858027
4.4881496 -1.9487092 -2.1784816
4.4890432 -1.9649479 -2.1817355
4.5060172 -1.92105 -2.180922
4.5150661 -1.9416926 -2.1882432
4.5415916 -1.9025835 -2.1923106
4.5322256 -1.9154193 -2.1906836
4.5532017 -1.8553468 -2.1890569
4.5473504 -1.8696418 -2.1890569
4.5428133 -1.8854113 -2.1898701
4.5630727 -1.8260227 -2.1882432
4.5674787 -1.8444538 -2.1931241
4.5849733 -1.8005248 -2.1931241
4.5738821 -1.8136988 -2.1906836
4.5965047 -1.7708791 -2.1931241
4.5960274 -1.7872972 -2.1955645
4.6132922 -1.7266749 -2.1931241
4.5989957 -1.7387331 -2.1890569
4.5935111 -1.7531725 -2.1890569
4.6192007 -1.6949595 -2.1906836
4.6067023 -1.7077279 -2.1874297
4.6331978 -1.6671402 -2.1923106
4.6245027 -1.6804396 -2.1906836
4.6473131 -1.6384008 -2.1939375
4.6335368 -1.6499283 -2.1898701
4.6576395 -1.5919422 -2.1914973
4.6422534 -1.6029886 -2.1866164
4.6492705 -1.6217773 -2.1923106
4.6782188 -1.56531 -2.196378
4.6732779 -1.5799994 -2.196378
4.6812835 -1.5327927 -2.1931241
4.6868529 -1.5509357 -2.198005
4.6910844 -1.5025307 -2.1931241
4.6863408 -1.5172607 -2.1931241
4.7122726 -1.4595932 -2.196378
4.7024331 -1.4727519 -2.1939375
4.6922984 -1.4866822 -2.1914973
4.7250972 -1.4301912 -2.198005
4.7238226 -1.4469224 -2.1996319
4.7322383 -1.3999562 -2.1971915
4.7208152 -1.4127207 -2.1939375
4.7341585 -1.3673396 -2.1939375
4.742116 -1.3857933 -2.1996319
4.7453055 -1.3213427 -2.1931241
4.7481656 -1.3382267 -2.196378
4.761508 -1.3581483 -2.2045126
4.7731352 -1.2959374 -2.2020721
4.7476716 -1.3059438 -2.1923106
4.772573 -1.2627505 -2.198005
4.7756414 -1.2796293 -2.2012589
4.7786436 -1.2322828 -2.1971915
4.7871232 -1.2505217 -2.2028859
4.8064218 -1.189469 -2.2045126
4.7938004 -1.2023406 -2.2004454
4.7844744 -1.2168796 -2.198005
4.8173528 -1.1601017 -2.2061396
4.7994852 -1.1717633 -2.1996319
4.8160448 -1.1260465 -2.2020721
4.806952 -1.1407453 -2.1996319
4.8232164 -1.0949227 -2.2020721
4.8159986 -1.1100903 -2.2004454
4.8370757 -1.0493481 -2.2036991
4.8423047 -1.0681943 -2.2077668
4.8407078 -1.0838006 -2.20858
4.8382096 -1.017807 -2.2012589
4.8457088 -1.035292 -2.2061396
4.8570414 -0.9899419 -2.206953
4.8433471 -1.0021274 -2.2020721
4.8688779 -0.95876628 -2.2093935
4.8567142 -0.97311211 -2.2053263
4.8724689 -0.9109776 -2.206953
4.8568573 -0.92473811 -2.2012589
4.8557215 -0.94033915 -2.2020721
4.8727026 -0.8793717 -2.2045126
4.8573365 -0.89236444 -2.1988184
4.8944807 -0.85070288 -2.211834
4.8593998 -0.86034173 -2.1971915
4.8782468 -0.8154633 -2.2020721
4.8809195 -0.83255732 -2.2045126
4.8858495 -0.76859862 -2.2020721
4.8834109 -0.78394413 -2.2020721
4.8825879 -0.80042946 -2.2028859
4.9033585 -0.73893732 -2.2077668
4.8774061 -0.75157607 -2.1971915
4.8989859 -0.70595467 -2.2036991
4.8966179 -0.72219634 -2.2036991
4.8997045 -0.6746611 -2.2020721
4.8848963 -0.68826634 -2.196378
4.8950815 -0.62620604 -2.1971915
4.9075823 -0.64348149 -2.2036991
4.9091587 -0.6593824 -2.2053263
4.917161 -0.59678352 -2.2053263
4.9007568 -0.61042154 -2.1988184
4.9281726 -0.56585121 -2.20858
4.9227419 -0.58090258 -2.206953
4.9099264 -0.53165466 -2.1988184
4.9117684 -0.54833913 -2.2004454
4.9111676 -0.48414046 -2.1971915
4.9223461 -0.5008617 -2.2028859
4.9079385 -0.51584512 -2.1971915
4.9304862 -0.45478368 -2.2045126
4.9236584 -0.46889105 -2.2020721
4.9261122 -0.4214507 -2.2012589
4.928328 -0.43810758 -2.2028859
4.9359488 -0.39106813 -2.2045126
4.9383378 -0.40687299 -2.2061396
4.946826 -0.34331307 -2.2077668
4.9329038 -0.35878757 -2.2020721
4.9299312 -0.37414473 -2.2012589
4.9324746 -0.31118929 -2.2004454
4.9442339 -0.32752892 -2.2061396
4.9398537 -0.27964029 -2.2028859
4.9425468 -0.29623848 -2.2045126
4.947031 -0.24800892 -2.2053263
4.9517007 -0.26384088 -2.2077668
4.950974 -0.2014482 -2.2061396
4.9630942 -0.21756124 -2.211834
4.9441352 -0.23229468 -2.2036991
4.9485493 -0.16848359 -2.2045126
4.9479632 -0.18489262 -2.2045126
4.9458575 -0.13728642 -2.2028859
4.9508805 -0.15299289 -2.2053263
4.9521208 -0.10546154 -2.2053263
4.9499173 -0.1218378 -2.2045126
4.9547319 -0.057941813 -2.2061396
4.9673138 -0.073696986 -2.211834
4.9560966 -0.089104809 -2.206953
4.9604836 -0.025973268 -2.20858
4.9603701 -0.042422678 -2.20858
4.9514127 0.0060504251 -2.2045126
4.9641972 -0.0095305853 -2.2102072
4.9512768 0.037161231 -2.2045126
4.9641552 0.022526916 -2.2102072
4.9652925 0.085803695 -2.2110205
4.9618831 0.070151277 -2.2093935
4.9712238 0.053796541 -2.2134609
4.9646344 0.11786657 -2.2110205
4.9704781 0.10151315 -2.2134609
4.9510121 0.148672 -2.2053263
4.9678917 0.13356008 -2.2126474
4.9657869 0.19684386 -2.2126474
4.9682074 0.18130767 -2.2134609
4.9724045 0.16582145 -2.2150879
4.9698882 0.22916013 -2.2150879
4.9614568 0.21315448 -2.2110205
4.9537082 0.26047978 -2.20858
4.969101 0.24563862 -2.2150879
4.9573946 0.2927874 -2.2110205
4.9583387 0.2763451 -2.2110205
4.9580007 0.34061301 -2.2126474
4.9591031 0.32416844 -2.2126474
4.9637446 0.30881289 -2.2142744
4.9610991 0.37389797 -2.2150879
4.9459724 0.35540074 -2.2077668
4.9587226 0.40419698 -2.2150879
4.9563246 0.38833225 -2.2134609
4.9723892 0.43765017 -2.222409
4.9591756 0.42079195 -2.2159014
4.9534116 0.48394141 -2.2159014
4.9476314 0.4676882 -2.2126474
4.9581742 0.45297456 -2.2167149
4.9501834 0.51591927 -2.2159014
4.9445949 0.49876612 -2.2126474
4.9413004 0.54727221 -2.2134609
4.9466286 0.53213543 -2.2150879
4.939579 0.57851893 -2.2142744
4.9430895 0.56406844 -2.2150879
4.939126 0.62746179 -2.2167149
4.9392605 0.61171603 -2.2159014
4.9503317 0.59642488 -2.2199686
4.9301939 0.6105932 -2.211834
4.9313493 0.6588605 -2.2150879
4.9407544 0.64344639 -2.2183418
4.9114285 0.65619886 -2.2061396
4.9098425 0.64028972 -2.2045126
4.9172673 0.62555456 -2.206953
4.9306107 0.69119716 -2.2167149
4.9455471 0.67657739 -2.222409
4.9088979 0.68815339 -2.206953
4.9056048 0.67198527 -2.2045126
4.9315939 0.72295874 -2.2191553
4.9266062 0.70642585 -2.2159014
4.9061599 0.72010481 -2.2077668
4.9083977 0.70468915 -2.2077668
4.9286284 0.75506741 -2.2199686
4.925684 0.7379083 -2.2175283
4.9033442 0.75119382 -2.20858
4.8930321 0.73388749 -2.2028859
4.91394 0.80116683 -2.2167149
4.9308658 0.78803295 -2.2232225
4.9206824 0.77055824 -2.2175283
4.9011774 0.79996657 -2.2110205
4.8928418 0.7828294 -2.2061396
4.900826 0.76744884 -2.20858
4.9124126 0.83263487 -2.2183418
4.9168057 0.81749851 -2.2191553
4.9013138 0.83251607 -2.2134609
4.8948932 0.81561345 -2.2093935
4.8995848 0.86392796 -2.2150879
4.9096246 0.84892178 -2.2183418
4.8922362 0.86351496 -2.211834
4.8914728 0.84666246 -2.2102072
4.8930211 0.91040254 -2.2159014
4.9102349 0.89765567 -2.222409
4.9166284 0.88286978 -2.2240362
4.8795257 0.89291918 -2.20858
4.8841047 0.87790948 -2.2093935
4.8995986 0.94440216 -2.2215958
4.9007459 0.92866325 -2.220782
4.8831234 0.94299197 -2.2142744
4.8898129 0.92747813 -2.2159014
4.8819265 0.91010129 -2.2110205
4.8933983 0.97602063 -2.2215958
4.8910608 0.95958835 -2.2191553
4.8663507 0.97151136 -2.2093935
4.8711724 0.95656919 -2.2102072
4.8941503 1.0090764 -2.2248495
4.8974695 0.9928422 -2.2248495
4.8778701 1.0066072 -2.2175283
4.8632751 0.9867937 -2.2093935
4.8770952 1.0544671 -2.2215958
4.8875318 1.0406629 -2.2248495
4.8981094 1.0259465 -2.2281034
4.8623333 1.0361823 -2.2134609
4.8637757 1.0205272 -2.2126474
4.8826675 1.0887213 -2.2272899
4.8916044 1.0737 -2.2297304
4.8701849 1.0859379 -2.2215958
4.8503733 1.065537 -2.2110205
4.8644109 1.0526133 -2.2159014
4.868608 1.1177435 -2.2240362
4.875659 1.1032501 -2.2256629
4.8432879 1.1137103 -2.2126474
4.8487368 1.0980479 -2.2134609
4.8826246 1.1542042 -2.2337978
4.8737712 1.1359549 -2.2281034
4.8379731 1.1445407 -2.2134609
4.8486619 1.1309971 -2.2167149
4.8586931 1.1988084 -2.2281034
4.8644176 1.1831204 -2.2289169
4.8823237 1.1712431 -2.2354248
4.8320851 1.1922433 -2.2159014
4.8429084 1.1787816 -2.2191553
4.8414598 1.1614401 -2.2167149
4.8546076 1.2302084 -2.2297304
4.8549032 1.2140657 -2.2281034
4.8295984 1.2247679 -2.2183418
4.8227878 1.2069288 -2.2134609
4.848331 1.2619907 -2.2305439
4.8593493 1.2485725 -2.2337978
4.8180523 1.2550095 -2.2167149
4.8151097 1.2372055 -2.2134609
4.8471398 1.2951624 -2.2337978
4.8602414 1.2814116 -2.2378652
4.8118367 1.2857294 -2.2175283
4.8264527 1.2734016 -2.222409
4.8380055 1.342608 -2.2354248
4.8457236 1.3283695 -2.2370517
4.8412838 1.3099059 -2.2329843
4.8034334 1.3167764 -2.2175283
4.8304734 1.3078856 -2.2281034
4.8347468 1.3744766 -2.2378652
4.8284869 1.3563172 -2.2329843
4.7976017 1.3648238 -2.220782
4.8124199 1.3527102 -2.2256629
4.8025613 1.3336747 -2.2191553
4.8185086 1.4044666 -2.2346113
4.821383 1.3879756 -2.2337978
4.7957053 1.3978201 -2.2240362
4.7985578 1.3814046 -2.2232225
4.8148408 1.4362839 -2.2370517
4.8140731 1.4195964 -2.2346113
4.7830768 1.4277152 -2.222409
4.7980523 1.4157852 -2.2272899
4.8060699 1.4840505 -2.2394919
4.8039742 1.4659727 -2.236238
4.8050575 1.4498188 -2.2346113
4.7796249 1.4768009 -2.2272899
4.779254 1.4593409 -2.2248495
4.7835636 1.4451529 -2.2248495
4.8103237 1.5194587 -2.2459998
4.8080978 1.5021607 -2.2427461
4.7612782 1.5048803 -2.2232225
4.7677264 1.4904612 -2.2240362
4.7919879 1.5468467 -2.2419324
4.7968235 1.5317855 -2.2419324
4.768846 1.5412148 -2.2313573
4.7687101 1.523725 -2.2289169
4.7798886 1.5780218 -2.2411189
4.795516 1.5655655 -2.2459998
4.7518549 1.5696865 -2.2281034
4.7590418 1.5536579 -2.2289169
4.7699928 1.6247673 -2.2435594
4.7750731 1.6097748 -2.2435594
4.7783737 1.5941885 -2.2427461
4.7403092 1.6155797 -2.2297304
4.750555 1.6024326 -2.2321708
4.7503657 1.5857656 -2.2297304
4.7625632 1.6575687 -2.2451866
4.7697616 1.6423599 -2.2459998
4.7294898 1.6469831 -2.2297304
4.7383795 1.6324818 -2.2313573
4.7483168 1.6870639 -2.2435594
4.7452664 1.6682795 -2.2394919
4.7362652 1.6827819 -2.2378652
4.7311869 1.6642575 -2.2329843
4.7376223 1.7168677 -2.2435594
4.7518892 1.7042304 -2.2476268
4.7032666 1.7044176 -2.2272899
4.7189164 1.693337 -2.2321708
4.7277708 1.7648212 -2.2468133
4.7350059 1.7505921 -2.2476268
4.7387662 1.7350806 -2.2468133
4.7000761 1.7554178 -2.2337978
4.7107091 1.7425462 -2.236238
4.7041512 1.7233377 -2.2305439
4.7279139 1.8006902 -2.2525077
4.7287307 1.7830669 -2.2500672
4.6974926 1.7881628 -2.2378652
4.697958 1.7714634 -2.2354248
4.7113962 1.8283783 -2.2500672
4.7222338 1.8155336 -2.2525077
4.6770139 1.8159719 -2.2337978
4.689517 1.8038946 -2.2370517
4.7015152 1.8586147 -2.2508807
4.7056289 1.8431697 -2.2500672
4.6740055 1.8486851 -2.2378652
4.6797915 1.8339887 -2.2378652
4.6898956 1.9072297 -2.2541347
4.684001 1.8877066 -2.2484403
4.6902347 1.8721645 -2.2484403
4.6650305 1.8810103 -2.2394919
4.6715684 1.8647137 -2.2394919
4.6727538 1.9345652 -2.2516942
4.6804991 1.920568 -2.2525077
4.6484489 1.9264009 -2.2403057
4.6548109 1.9109764 -2.2403057
4.6692529 1.8997872 -2.2443728
4.65343 1.9618589 -2.2484403
4.6713715 1.9521604 -2.2541347
4.6396194 1.9569902 -2.2419324
4.6427126 1.9401839 -2.2403057
4.6574535 1.9990753 -2.2565751
4.6637106 1.9844345 -2.2565751
4.6336012 1.9897951 -2.2451866
4.6213374 1.9673548 -2.236238
4.6397214 2.0444269 -2.2573884
4.6427732 2.028379 -2.2557616
4.6477971 2.0122445 -2.2549479
4.6226463 2.0378666 -2.2492537
4.6156321 2.0174809 -2.2427461
4.6290026 2.0050695 -2.2459998
4.6380935 2.079577 -2.2630827
4.6345863 2.0605431 -2.2582018
4.6043887 2.0654328 -2.2468133
4.6078744 2.048667 -2.2451866
4.6162553 2.1056962 -2.2590156
4.6332011 2.0948942 -2.2638962
4.5929828 2.0950809 -2.2476268
4.6062012 2.0836518 -2.2508807
4.5992455 2.133925 -2.2573884
4.6042666 2.1187027 -2.2565751
4.5856161 2.1285713 -2.2508807
4.5876689 2.1110649 -2.2484403
4.5818501 2.1795449 -2.2590156
4.59198 2.166698 -2.2606423
4.6074147 2.1553304 -2.2647097
4.5686507 2.1732659 -2.2525077
4.5688467 2.1557827 -2.2492537
4.5789061 2.1429682 -2.2508807
4.5676808 2.2090859 -2.2590156
4.5749807 2.1939275 -2.2590156
4.5561671 2.2035174 -2.2533212
4.561419 2.1884034 -2.2525077
4.5619082 2.2417731 -2.2630827
4.5689287 2.2274292 -2.2630827
4.5434818 2.2337003 -2.2541347
4.5570445 2.2226198 -2.2573884
4.5473371 2.271184 -2.2630827
4.557724 2.2585104 -2.2647097
4.5305953 2.263813 -2.2549479
4.5413527 2.2503979 -2.2565751
4.5269537 2.3155618 -2.2638962
4.5390925 2.3038099 -2.2663367
4.5348845 2.2837868 -2.2606423
4.5184164 2.3121901 -2.2598288
4.5126252 2.2913671 -2.2533212
4.5234613 2.2780342 -2.2549479
4.5086617 2.3430645 -2.2622693
4.5354877 2.3389363 -2.2720311
4.4985275 2.3387921 -2.2573884
4.5111299 2.326375 -2.2598288
4.4966698 2.3738356 -2.2638962
4.5154347 2.3656309 -2.2695906
4.4865613 2.3695004 -2.2590156
4.4972196 2.357091 -2.2606423
4.4909072 2.4080045 -2.2687771
4.4956417 2.3913839 -2.2671502
4.4808269 2.4036064 -2.2638962
4.4919977 2.3904514 -2.2655232
4.4675856 2.4510019 -2.2687771
4.486496 2.4430718 -2.2744715
4.4945736 2.4281795 -2.2744715
4.4720545 2.4352081 -2.2671502
4.4828968 2.4228849 -2.2687771
4.4644356 2.4869127 -2.275285
4.4662609 2.46856 -2.2720311
4.4724159 2.4913583 -2.2793522
4.4578347 2.4649186 -2.2679636
4.46876 2.4526608 -2.2695906
4.4435101 2.5129948 -2.2728446
4.4629717 2.5045056 -2.2785387
4.4514618 2.5174918 -2.2769117
4.4497905 2.498127 -2.2720311
4.4351115 2.546186 -2.2769117
4.4482937 2.5341766 -2.2793522
4.4319425 2.5443666 -2.275285
4.4340062 2.5260367 -2.2720311
4.4073148 2.586792 -2.275285
4.4221845 2.5758395 -2.2785387
4.4239278 2.5582767 -2.275285
4.4151936 2.5914161 -2.2793522
4.4185777 2.5747716 -2.2769117
4.4160194 2.5537033 -2.2712173
4.397254 2.6181717 -2.2785387
4.4023128 2.6024837 -2.2769117
4.4030771 2.6226771 -2.2817926
4.4101768 2.6071329 -2.2809792
4.3802547 2.6465135 -2.2785387
4.3854132 2.6308606 -2.2769117
4.393867 2.6557822 -2.2858601
4.3979478 2.6383801 -2.2834196
4.3630738 2.6747429 -2.2785387
4.3687978 2.6583612 -2.2769117
4.3724203 2.6804726 -2.2834196
4.3792586 2.6657736 -2.2826061
4.3418436 2.7194109 -2.2809792
4.3472619 2.7038279 -2.2793522
4.3593144 2.6913157 -2.2809792
4.3534679 2.7076876 -2.2826061
4.3733068 2.699954 -2.2883005
4.3257337 2.7483723 -2.2817926
4.3379145 2.7359631 -2.2834196
4.3319025 2.7522917 -2.2850466
4.3389816 2.7376947 -2.2842331
4.3522067 2.7269592 -2.2866735
4.310967 2.7782292 -2.2834196
4.3340073 2.7727811 -2.290741
4.340147 2.7970345 -2.2988756
4.3309288 2.7708116 -2.289114
4.2903662 2.8032622 -2.2817926
4.3052821 2.7937491 -2.2850466
4.3219938 2.8250036 -2.2988756
4.3124566 2.7994745 -2.289114
4.2749214 2.8531752 -2.2883005
4.288929 2.84201 -2.290741
4.2937503 2.82476 -2.2883005
4.2951765 2.8656132 -2.2988756
4.3011136 2.8500836 -2.2972486
4.3095489 2.837312 -2.2972486
4.2569098 2.8799791 -2.2883005
4.278069 2.8747425 -2.2948081
4.2775917 2.895057 -2.2996891
4.2775674 2.875489 -2.2948081
4.2457557 2.9125769 -2.2923677
4.2478418 2.8933375 -2.2883005
4.2542863 2.9195206 -2.2972486
4.2684731 2.9084845 -2.2996891
4.2358599 2.9461918 -2.2972486
4.2300615 2.9224851 -2.289114
4.2508593 2.9566245 -2.3053834
4.2546263 2.9383597 -2.3021295
4.2019434 2.9817545 -2.2939949
4.2172647 2.9727485 -2.2972486
4.2215762 2.9570787 -2.2948081
4.217813 2.9941199 -2.302943
4.2361569 2.9871726 -2.3078239
4.2380371 2.9686093 -2.3037562
4.1880069 3.0138264 -2.2972486
4.2034011 3.0049036 -2.3005025
4.2058034 3.026633 -2.3070104
4.20786 3.0080912 -2.302943
4.1846938 3.0526528 -2.3061967
4.1785188 3.0269675 -2.2972486
4.175838 3.0461926 -2.301316
4.187397 3.0333991 -2.3021295
4.1663642 3.0806978 -2.3070104
4.1741476 3.0639722 -2.3053834
4.1639633 3.0777981 -2.3053834
4.180975 3.0701096 -2.3094509
4.14152 3.1231291 -2.3094509
4.1454625 3.1057196 -2.3061967
4.147872 3.0872254 -2.3021295
4.1366005 3.120549 -2.3070104
4.1522307 3.1119218 -2.3102643
4.1493373 3.0883162 -2.302943
4.1337795 3.1605134 -2.316772
4.1369619 3.1412647 -2.3127048
4.1241698 3.1520259 -2.3110776
4.1369619 3.1412647 -2.3127048
4.1095061 3.183068 -2.3143315
4.1194859 3.1701429 -2.3143315
4.1066179 3.1808307 -2.3127048
4.11659 3.1679146 -2.3127048
4.0908647 3.2099528 -2.315145
4.0980463 3.194839 -2.313518
4.0859914 3.2072842 -2.3127048
4.1032495 3.2000504 -2.316772
4.0721331 3.2600582 -2.3224661
4.0737753 3.2404258 -2.3175855
4.0974002 3.2370934 -2.3249066
4.0578699 3.2486393 -2.3143315
4.0680552 3.2358761 -2.3143315
4.0787625 3.222369 -2.3143315
4.0586634 3.2913363 -2.3265338
4.0618687 3.2728381 -2.3224661
4.0368047 3.2747784 -2.3143315
4.0499191 3.2643726 -2.3159585
4.0423908 3.3228233 -2.3297875
4.051394 3.3089521 -2.3289742
4.0198073 3.3042595 -2.316772
4.0279131 3.2885993 -2.315145
4.02003 3.3469858 -2.3289742
4.0285354 3.3338792 -2.3281608
3.9983854 3.3301497 -2.316772
4.0108156 3.3180358 -2.3175855
3.9871264 3.386116 -2.3289742
3.9977436 3.373574 -2.3289742
4.0178976 3.3666403 -2.3338549
3.9801629 3.3802023 -2.3249066
3.9809875 3.3594341 -2.3192124
3.9921055 3.346215 -2.3192124
3.9720995 3.4177532 -2.3330414
3.9861887 3.4069378 -2.3346684
3.9665599 3.4129868 -2.3297875
3.9667437 3.3903184 -2.3232799
3.9546804 3.4462428 -2.3354819
3.9660859 3.4331102 -2.3354819
3.9450386 3.4378405 -2.3297875
3.9516747 3.4218423 -2.327347
3.9350827 3.474128 -2.3371089
3.9404829 3.4569294 -2.3338549
3.9254949 3.4656632 -2.3314145
3.9253745 3.443675 -2.3249066
3.9029088 3.512965 -2.3379223
3.9125655 3.4994674 -2.3371089
3.9173198 3.4804046 -2.3330414
3.8947608 3.505631 -2.3330414
3.9139271 3.5006852 -2.3379223
3.9208093 3.4847293 -2.3354819
3.886894 3.5442495 -2.3419898
3.8953025 3.5295665 -2.3403628
3.8828437 3.5405564 -2.3395493
3.8831167 3.5185249 -2.3330414
3.8752863 3.5785177 -2.3484974
3.881124 3.5613854 -2.3452437
3.8585567 3.5643172 -2.3387358
3.8636234 3.5453265 -2.3346684
3.8487999 3.601645 -2.3468707
3.8647375 3.5925925 -2.3493111
3.8447974 3.5978994 -2.3444302
3.8339586 3.5639811 -2.3306012
3.8146849 3.637758 -2.3468707
3.8300722 3.6295271 -2.3493111
3.8401263 3.6162221 -2.3484974
3.8114073 3.6358993 -2.3452437
3.8221147 3.6219862 -2.3444302
3.8268251 3.6036966 -2.3403628
3.7911136 3.6623166 -2.3468707
3.8039176 3.651654 -2.3476839
3.7931018 3.6655169 -2.3484974
3.797327 3.6453273 -2.3436165
3.7660778 3.6854439 -2.3460569
3.7723994 3.6684983 -2.3428032
3.7699952 3.6892776 -2.3484974
3.7854979 3.6812363 -2.3509378
3.7564747 3.723835 -2.3550053
3.7544818 3.6972563 -2.3460569
3.7422013 3.7096856 -2.3460569
3.75318 3.6959746 -2.3452437
3.7244103 3.7636204 -2.3574457
3.733001 3.7473662 -2.3550053
3.7344098 3.7252944 -2.3484974
3.7233245 3.7389536 -2.3493111
3.7402244 3.7324009 -2.3525648
3.7000284 3.7875931 -2.3574457
3.7036011 3.7661822 -2.3517513
3.700691 3.7869456 -2.3574457
3.7061634 3.7687879 -2.3533783
3.7199001 3.7603714 -2.3550053
3.6716883 3.8074605 -2.3550053
3.6810863 3.7932851 -2.3533783
3.6640787 3.7995696 -2.3501244
3.677269 3.7893515 -2.3509378
3.6495435 3.8337386 -2.3566322
3.6584451 3.8176568 -2.3541918
3.6520631 3.8363855 -2.3582592
3.6609738 3.8202953 -2.3558187
3.6462715 3.8544755 -2.3623264
3.6113265 3.8672607 -2.3558187
3.6284637 3.8612206 -2.3590727
3.6394076 3.8458786 -2.3574457
3.5906739 3.8939033 -2.3582592
3.6016459 3.8812652 -2.3574457
3.5672286 3.9203343 -2.3598859
3.5839107 3.9125259 -2.3623264
3.5522971 3.9535418 -2.3663938
3.5573466 3.934232 -2.3615131
3.524267 3.973665 -2.3647668
3.539856 3.964685 -2.3663938
3.49915 4.0224771 -2.3737152
3.5045483 4.0032167 -2.3688343
3.5195241 3.9949279 -2.3704612
3.4731011 4.0449901 -2.3737152
3.4817173 4.0279202 -2.3704612
3.4516339 4.0729079 -2.3769691
3.4537406 4.0495334 -2.3696477
3.4095895 4.1010437 -2.3745286
3.4283175 4.0973191 -2.3785958
3.4298711 4.0745482 -2.3712747
3.3857911 4.1278052 -2.3769691
3.395252 4.1129217 -2.3745286
3.3602154 4.1510019 -2.3777826
3.380887 4.1483345 -2.3826632
3.3340676 4.1720333 -2.3777826
3.3524668 4.166647 -2.3810363
3.2983739 4.2095976 -2.3810363
3.3138444 4.2020845 -2.3826632
3.3258946 4.1902213 -2.38185
3.2800612 4.2423735 -2.3875442
3.2922499 4.230607 -2.3867309
3.2592456 4.2721829 -2.3924251
3.2611527 4.2454119 -2.3834767
3.2290411 4.2881985 -2.3899846
3.2369797 4.2707515 -2.3859172
3.1837218 4.3151422 -2.3875442
3.2056398 4.3148279 -2.3932385
3.2235556 4.3105893 -2.3964925
3.1662252 4.3483543 -2.3948655
3.1755507 4.33249 -2.3916116
3.142344 4.3746448 -2.3981194
3.1485772 4.3543873 -2.3924251
3.1182535 4.4008088 -2.4013731
3.123575 4.3790917 -2.3948655
3.0758638 4.4305401 -2.4013731
3.089767 4.4208555 -2.4013731
3.1012564 4.4061022 -2.3989327
3.0502872 4.4548321 -2.4038136
3.0611558 4.4407148 -2.4013731
3.0214555 4.4744372 -2.4038136
3.036278 4.4643922 -2.4038136
2.9935102 4.4953766 -2.4046271
3.0096548 4.4889841 -2.4062541
2.9552114 4.5315566 -2.4086945
2.9734435 4.5283594 -2.4119484
2.9834032 4.5108547 -2.407881
2.9357677 4.5659142 -2.4168293
2.944932 4.5469527 -2.4119484
2.9119151 4.5919838 -2.4208965
2.9253428 4.5812736 -2.420083
2.8862369 4.6189423 -2.424964
2.8976438 4.6031623 -2.4217103
2.8492501 4.6568499 -2.4306583
2.861948 4.6447649 -2.4290314
2.8746006 4.6326456 -2.4274044
2.8200614 4.6767178 -2.4314718
2.8347411 4.6678338 -2.4314718
2.7963369 4.7058244 -2.437166
2.8045382 4.6860428 -2.4314718
2.7658896 4.7237844 -2.437166
2.7750394 4.7035718 -2.4314718
2.7258642 4.7596307 -2.4420469
2.7407207 4.7489824 -2.4412334
2.752871 4.7356105 -2.4387929
2.6932778 4.7739515 -2.4404202
2.7163172 4.7777009 -2.4469278
2.6747694 4.8115396 -2.4509952
2.6854095 4.7951412 -2.4469278
2.6366224 4.8158913 -2.4444873
2.6605215 4.8215189 -2.4518087
2.5928745 4.8478746 -2.4477413
2.6150048 4.8505077 -2.4534354
2.6293573 4.8406639 -2.4526219
2.5683241 4.8753862 -2.4534354
2.5887668 4.8769765 -2.4583163
2.5359476 4.8902469 -2.4526219
2.5546823 4.8887339 -2.4558759
2.5092986 4.916286 -2.4575028
2.5289283 4.9144373 -2.4607568
2.4709535 4.9581351 -2.4664512
2.4824162 4.9421854 -2.4623837
2.4930143 4.9225154 -2.4566896
2.4421008 4.9805508 -2.4697051
2.4529362 4.9609594 -2.4640107
2.4083018 4.9929252 -2.4680781
2.4240453 4.9832687 -2.4672647
2.3839307 5.0228152 -2.4753995
2.3894506 4.9938731 -2.4648242
2.337795 5.0525074 -2.4786532
2.3545382 5.0447264 -2.4786532
2.3649287 5.025733 -2.472959
2.306005 5.0670958 -2.4786532
2.3219116 5.0598264 -2.4786532
2.2769651 5.0902205 -2.4827206
2.2899415 5.0763793 -2.4794667
2.2374289 5.0897651 -2.4753995
2.2608144 5.0994134 -2.4835341
2.1949415 5.1261244 -2.4827206
2.209585 5.115849 -2.4810936
2.226377 5.1105566 -2.4819071
2.169584 5.1587181 -2.4916689
2.1814971 5.1417851 -2.486788
2.1390171 5.1793747 -2.4949226
2.1533678 5.1655083 -2.4916689
2.1041522 5.1896939 -2.4932957
2.1206548 5.1809978 -2.4924822
2.0591691 5.2194924 -2.4981766
2.0708268 5.2011147 -2.4924822
2.0891988 5.1996698 -2.4949226
2.0225289 5.2279224 -2.4957361
2.0385258 5.217783 -2.4941092
1.9915887 5.2456508 -2.4981766
2.0093653 5.2427812 -2.4998035
1.9640442 5.2755265 -2.5063112
1.9786835 5.2641978 -2.5038707
1.9220101 5.3181915 -2.5177
1.934949 5.3018298 -2.5128191
1.9490671 5.288867 -2.5095651
1.8827473 5.3167148 -2.5111921
1.9016007 5.3138824 -2.5128191
1.8459789 5.321857 -2.5079384
1.8620864 5.3143067 -2.5071249
1.8174491 5.3509674 -2.516073
1.831287 5.3365898 -2.5120056
1.7660011 5.3681664 -2.516073
1.7851616 5.3695278 -2.5193269
1.7982996 5.3497243 -2.5128191
1.7357758 5.393373 -2.5225806
1.7513911 5.3806372 -2.5193269
1.7020103 5.4079547 -2.5242078
1.7132819 5.3813891 -2.514446
1.6674571 5.4167967 -2.5233943
1.6844678 5.4115314 -2.5233943
1.6303394 5.4204521 -2.5201402
1.6525608 5.4289994 -2.5266483
1.5843464 5.4569082 -2.529902
1.6025108 5.4554105 -2.5315289
1.6196406 5.4503493 -2.5315289
1.5520624 5.4775724 -2.5347829
1.5697132 5.4706402 -2.5339694
1.5127608 5.4733934 -2.528275
1.5338908 5.4826894 -2.5347829
1.4657919 5.5088496 -2.5380368
1.4797698 5.4880819 -2.5307155
1.4965216 5.4816437 -2.529902
1.4333951 5.5305805 -2.543731
1.4461225 5.508379 -2.5355964
1.3968279 5.5323925 -2.5404773
1.4114256 5.521143 -2.5372233
1.3653337 5.5628276 -2.5502388
1.3828866 5.5547242 -2.5486119
1.3307759 5.5730739 -2.5510523
1.3495663 5.5741935 -2.5534928
1.2742085 5.5769081 -2.5469849
1.2955871 5.5851111 -2.5526793
1.3139623 5.5845699 -2.5543063
1.2450788 5.6115603 -2.5591872
1.2614994 5.602273 -2.5567467
1.2068936 5.6105523 -2.5551195
1.2249051 5.6085176 -2.5559332
1.1529819 5.6218786 -2.5551195
1.1702667 5.6164398 -2.5543063
1.1916876 5.6306105 -2.5624409
1.1212775 5.6525049 -2.5656948
1.1383064 5.6453724 -2.5640678
1.0864712 5.6686006 -2.5697622
1.1032244 5.6597786 -2.5673218
1.0488423 5.6701088 -2.5673218
1.0679792 5.6683946 -2.5681353
1.0147728 5.691153 -2.5738294
1.0333118 5.6859593 -2.5730162
0.95888251 5.6934247 -2.5705757
0.97892684 5.7029896 -2.5762699
0.99562925 5.6871138 -2.5705757
0.92413831 5.7121239 -2.5762699
0.94188577 5.7018166 -2.5730162
0.88991225 5.7286501 -2.5811508
0.90847611 5.7294354 -2.5827777
0.85424352 5.7433138 -2.5852182
0.8706345 5.729764 -2.5803373
0.79656321 5.7405305 -2.5803373
0.81559676 5.7378569 -2.5803373
0.83388036 5.7370744 -2.5811508
0.76096052 5.7490439 -2.5819645
0.7787714 5.7448144 -2.5811508
0.7231319 5.7484002 -2.579524
0.74118906 5.7460999 -2.579524
0.68621415 5.7547641 -2.5803373
0.70451075 5.7543931 -2.5811508
0.62973535 5.7593799 -2.579524
0.65087843 5.7754159 -2.5876586
0.66855121 5.7605214 -2.5819645
0.59634572 5.7904849 -2.5917261
0.61376143 5.7813148 -2.5884721
0.55893695 5.7942152 -2.5917261
0.5771417 5.7924299 -2.5917261
0.52183783 5.8013434 -2.593353
0.54124141 5.8014002 -2.5941665
0.46758845 5.8242974 -2.6014876
0.48628977 5.8154321 -2.5982339
0.50361097 5.8029542 -2.593353
0.43010122 5.8290176 -2.6023011
0.44858724 5.8166289 -2.5974202
0.39346761 5.831605 -2.6023011
0.41178781 5.8303399 -2.6023011
0.35635641 5.843143 -2.6063685
0.37459335 5.8401713 -2.6055551
0.30062893 5.8535929 -2.6096225
0.31881702 5.8489709 -2.6079955
0.33687389 5.8424683 -2.6055551
0.26155484 5.8499823 -2.607182
0.28077614 5.8454328 -2.6055551
0.225281 5.8642907 -2.6128764
0.24309777 5.8489499 -2.6063685
0.18723388 5.8601446 -2.610436
0.20698662 5.8686213 -2.6145034
0.1310958 5.8671517 -2.6128764
0.14966586 5.87219 -2.6153166
0.16779827 5.8607335 -2.610436
0.093349494 5.8770103 -2.6169438
0.11188056 5.8803415 -2.6185706
0.055446878 5.8829718 -2.6193843
0.073861286 5.8772874 -2.6169438
0.018487386 5.8850307 -2.6201975
0.036963042 5.8831172 -2.6193843
-0.039019175 5.8831038 -2.6193843
-0.02057608 5.8941593 -2.624265
-0.0010279611 5.8905416 -2.622638
-0.07603056 5.8863964 -2.621011
-0.05755372 5.8884325 -2.6218245
-0.11513773 5.8894162 -2.622638
-0.095459998 5.880631 -2.6185706
-0.15223725 5.8922286 -2.624265
-0.13385104 5.8981581 -2.6267054
-0.20942792 5.8795042 -2.6193843
-0.19113491 5.8856111 -2.6218245
-0.17032294 5.877111 -2.6177571
-0.24731235 5.876204 -2.6185706
-0.22839218 5.8915977 -2.6250784
-0.28458506 5.8818331 -2.6218245
-0.26499477 5.8809199 -2.621011
-0.32306021 5.8889952 -2.6258919
-0.30436739 5.8863316 -2.624265
-0.3801325 5.878263 -2.622638
-0.36074761 5.8813148 -2.6234515
-0.34134945 5.8843026 -2.624265
-0.41705674 5.8757591 -2.622638
-0.39834931 5.873394 -2.621011
-0.45326328 5.863914 -2.6185706
-0.43551558 5.8744197 -2.622638
-0.49245018 5.8644199 -2.6201975
-0.47417629 5.88059 -2.6267054
-0.54820794 5.8649764 -2.622638
-0.53093123 5.8794069 -2.6283324
-0.51150465 5.8701248 -2.6234515
-0.58691192 5.8593926 -2.6218245
-0.56991345 5.8757563 -2.6283324
-0.62332928 5.8519559 -2.6201975
-0.60633796 5.8574147 -2.6218245
-0.66335803 5.8585873 -2.6250784
-0.64131111 5.8463368 -2.6185706
-0.71756029 5.835628 -2.6177571
-0.69950497 5.8488607 -2.622638
-0.68112791 5.8510294 -2.622638
-0.75663579 5.8417449 -2.622638
-0.73669755 5.8479748 -2.624265
-0.79283661 5.8332539 -2.621011
-0.7757073 5.8447723 -2.6250784
-0.83023202 5.8262033 -2.6201975
-0.811409 5.8325438 -2.6218245
-0.88859308 5.8342223 -2.6275189
-0.868375 5.8243346 -2.6218245
-0.85086542 5.8324575 -2.624265
-0.92567706 5.8247533 -2.6258919
-0.9066354 5.8295965 -2.6267054
-0.96386945 5.8222594 -2.6275189
-0.94469362 5.8198485 -2.6250784
-0.99826491 5.803483 -2.6218245
-0.98063707 5.810194 -2.6234515
-1.0572293 5.8060327 -2.6275189
-1.0405933 5.8183179 -2.6315861
-1.0197133 5.8127389 -2.6275189
-1.0953794 5.8082528 -2.6315861
-1.0768118 5.8042908 -2.6283324
-1.1303722 5.7829289 -2.6234515
-1.112913 5.7956166 -2.6275189
-1.1681352 5.7828746 -2.6267054
-1.1513877 5.7936845 -2.6299591
-1.2268744 5.7819057 -2.6315861
-1.2054524 5.7752113 -2.6267054
-1.1880397 5.7825494 -2.6283324
-1.2616146 5.7669439 -2.6283324
-1.243492 5.7708788 -2.6283324
-1.2952118 5.7426357 -2.621011
-1.2815259 5.7662954 -2.6299591
-1.334753 5.7448297 -2.6258919
-1.3171021 5.7507758 -2.6267054
-1.3911254 5.7370796 -2.6283324
-1.3743712 5.7467523 -2.6307728
-1.3515362 5.7352729 -2.6234515
-1.4281452 5.7279768 -2.6283324
-1.4110171 5.7359829 -2.6299591
-1.4646519 5.7168651 -2.6275189
-1.4457872 5.7178955 -2.6258919
-1.5024692 5.7108212 -2.6291459
-1.4849811 5.7172809 -2.6299591
-1.5572186 5.6961355 -2.6291459
-1.5412194 5.7080555 -2.6323996
-1.5227538 5.7149 -2.6332133
-1.5934771 5.6842012 -2.6283324
-1.579978 5.7088242 -2.6372805
-1.6311574 5.6773052 -2.6299591
-1.6133147 5.6824017 -2.6299591
-1.6714371 5.6827197 -2.6372805
-1.6489868 5.6721525 -2.6299591
-1.7279658 5.6696076 -2.6389074
-1.7085627 5.6697602 -2.636467
-1.6892316 5.6736436 -2.6356537
-1.7602935 5.6481719 -2.6340265
-1.7468442 5.6676431 -2.6405344
-1.799933 5.6433368 -2.6372805
-1.7805469 5.6437359 -2.63484
-1.8346395 5.6263838 -2.63484
-1.8154123 5.6306977 -2.6340265
-1.8908955 5.6154408 -2.6380942
-1.8715129 5.6161532 -2.6356537
-1.8528771 5.6223288 -2.6356537
-1.9261414 5.6034489 -2.6380942
-1.9091176 5.6112013 -2.6389074
-1.9650786 5.5957222 -2.6405344
-1.943512 5.5935793 -2.636467
-1.9940369 5.5660644 -2.6323996
-1.980204 5.5826335 -2.6372805
-2.056571 5.5685906 -2.6429749
-2.0339866 5.5671549 -2.6389074
-2.017107 5.5752358 -2.6397209
-2.0870128 5.5435896 -2.6372805
-2.0663962 5.5415587 -2.6332133
-2.1227658 5.5299973 -2.6372805
-2.1057158 5.540422 -2.6389074
-2.155107 5.5076652 -2.6332133
-2.1437356 5.5297413 -2.6405344
-2.2116909 5.4989758 -2.6389074
-2.1950796 5.5075951 -2.6397209
-2.1720154 5.4970908 -2.6315861
-2.2453413 5.4774246 -2.6356537
-2.2281208 5.4844522 -2.6356537
-2.277144 5.454381 -2.6315861
-2.2597432 5.4635901 -2.6323996
-2.3144639 5.4446063 -2.6340265
-2.297816 5.4556189 -2.6356537
-2.3729801 5.4392982 -2.6421614
-2.3551559 5.4450488 -2.6413479
-2.3365993 5.4490623 -2.6397209
-2.3986192 5.4000635 -2.6307728
-2.3829081 5.4130039 -2.6332133
-2.434006 5.3882155 -2.6323996
-2.4185588 5.3991718 -2.6340265
-2.4710398 5.3773661 -2.63484
-2.4564056 5.3900905 -2.6372805
-2.5178707 5.343482 -2.6299591
-2.5103531 5.3712292 -2.6397209
-2.4903939 5.372458 -2.636467
-2.558641 5.3402925 -2.636467
-2.5363598 5.3367538 -2.6307728
-2.5914712 5.320374 -2.63484
-2.57236 5.3235531 -2.6323996
-2.6282094 5.3084388 -2.6372805
-2.6042681 5.3019104 -2.6299591
-2.668299 5.2617831 -2.6267054
-2.6517565 5.2701392 -2.6267054
-2.6416092 5.2936172 -2.6340265
-2.7064097 5.252562 -2.6307728
-2.6873982 5.2561588 -2.6283324
-2.7402706 5.2349763 -2.6307728
-2.7245805 5.2472768 -2.6323996
-2.7705886 5.2107186 -2.6275189
-2.7532952 5.2198768 -2.6275189
-2.8265915 5.1951175 -2.6332133
-2.8067455 5.1996384 -2.6307728
-2.7860835 5.200377 -2.6267054
-2.85478 5.1671605 -2.6283324
-2.8394125 5.1777048 -2.6291459
-2.8845093 5.14434 -2.6258919
-2.8701203 5.1544728 -2.6267054
-2.920373 5.1282716 -2.6275189
-2.9015517 5.134747 -2.6258919
-2.9507067 5.106658 -2.6258919
-2.9391956 5.1238265 -2.6299591
-3.0069854 5.0885849 -2.6315861
-2.9909828 5.0980077 -2.6315861
-2.9694653 5.1000028 -2.6275189
-3.0332596 5.0601892 -2.6267054
-3.0220211 5.0775433 -2.6307728
-3.0686533 5.0430827 -2.6283324
-3.053865 5.0584555 -2.6307728
-3.1141169 5.0108342 -2.6267054
-3.0974011 5.0190372 -2.6258919
-3.0778005 5.0225115 -2.622638
-3.1521552 4.997797 -2.6307728
-3.1316874 5.002028 -2.6275189
-3.1804259 4.9711814 -2.6275189
-3.1639242 4.9816999 -2.6275189
-3.205632 4.9419026 -2.622638
-3.1862574 4.9478979 -2.6201975
-3.237479 4.9210982 -2.622638
-3.2269981 4.9388933 -2.6267054
-3.2835488 4.888278 -2.6218245
-3.272233 4.9046488 -2.6250784
-3.2529223 4.9109039 -2.622638
-3.3243046 4.8805623 -2.6291459
-3.3069067 4.8879566 -2.6275189
-3.3547144 4.8574896 -2.6283324
-3.3292871 4.8550272 -2.621011
-3.3881066 4.8387189 -2.6299591
-3.3636992 4.8379264 -2.6234515
-3.4248397 4.7925935 -2.622638
-3.4068117 4.8009448 -2.621011
-3.3990819 4.8220768 -2.6267054
-3.4600027 4.7762966 -2.6258919
-3.4420118 4.7847767 -2.624265
-3.4961815 4.7612166 -2.6299591
-3.4758236 4.7647958 -2.6258919
-3.5257647 4.7370744 -2.6291459
-3.5067794 4.7443314 -2.6267054
-3.5765982 4.7102876 -2.6332133
-3.5606833 4.7200413 -2.6323996
-3.5395353 4.7245111 -2.6283324
-3.6016674 4.6819291 -2.6299591
-3.5802853 4.6845112 -2.6250784
-3.6315167 4.6564984 -2.6291459
-3.6135132 4.6635504 -2.6267054
-3.6607006 4.6335907 -2.6291459
-3.6506388 4.6508164 -2.6323996
-3.7126942 4.6061244 -2.6340265
-3.7050588 4.6263213 -2.6389074
-3.6828713 4.6300039 -2.6340265
-3.7415626 4.582706 -2.6340265
-3.7314014 4.5980444 -2.636467
-3.776531 4.5634222 -2.6372805
-3.7578976 4.5716848 -2.63484
-3.8004348 4.5340023 -2.6340265
-3.7861731 4.5459185 -2.6340265
-3.851691 4.5049739 -2.6389074
-3.8343658 4.5149355 -2.6372805
-3.8166287 4.5227695 -2.63484
-3.8787258 4.4793024 -2.6380942
-3.8598671 4.4859252 -2.63484
-3.9027512 4.4486666 -2.63484
-3.8827527 4.4540195 -2.6307728
-3.9326115 4.4247379 -2.6356537
-3.9223204 4.4411783 -2.6380942
-3.9798117 4.392199 -2.6389074
-3.9623244 4.4006081 -2.636467
-3.9513638 4.4178095 -2.6389074
-4.0117979 4.3704457 -2.6413479
-3.9955864 4.3803272 -2.6397209
-4.0337152 4.3377585 -2.6372805
-4.0193095 4.35111 -2.6372805
-4.0578861 4.3076282 -2.63484
-4.0435791 4.3210611 -2.63484
-4.1066418 4.2763853 -2.6397209
-4.0969706 4.2932315 -2.6421614
-4.0713978 4.2948599 -2.63484
-4.1367197 4.2523956 -2.6413479
-4.1213255 4.2647762 -2.6405344
-4.151269 4.2125802 -2.6332133
-4.1456857 4.2334328 -2.6380942
-4.1815276 4.1902938 -2.6356537
-4.1696291 4.2047071 -2.636467
-4.2243104 4.1497669 -2.636467
-4.210526 4.163753 -2.636467
-4.1979899 4.1789818 -2.6372805
-4.2508912 4.1251578 -2.6372805
-4.2405252 4.1410456 -2.6389074
-4.2768378 4.0956106 -2.636467
-4.2613173 4.1064916 -2.63484
-4.2899184 4.055356 -2.6283324
-4.2923303 4.0846744 -2.6380942
-4.3433862 4.0276542 -2.6372805
-4.3293762 4.0400338 -2.636467
-4.3146234 4.0531178 -2.6356537
-4.3618689 3.9941161 -2.6332133
-4.3519878 4.0102749 -2.63484
-4.3882632 3.9650993 -2.6332133
-4.3669806 3.9722528 -2.6283324
-4.4021835 3.927717 -2.6267054
-4.3966188 3.9476323 -2.6307728
-4.4486122 3.8917227 -2.6315861
-4.4411669 3.9112835 -2.63484
-4.4261231 3.9227924 -2.6332133
-4.4702115 3.8613055 -2.6299591
-4.4594369 3.8765299 -2.6307728
-4.5020046 3.8382852 -2.6340265
-4.4837055 3.8484337 -2.6307728
-4.5225029 3.8056045 -2.6315861
-4.5021596 3.8127077 -2.6267054
-4.5616436 3.7643418 -2.6332133
-4.5441737 3.7739842 -2.6299591
-4.5336962 3.7894142 -2.6307728
-4.5787745 3.7290366 -2.6291459
-4.5712757 3.7468779 -2.6315861
-4.6113048 3.7062581 -2.6340265
-4.5925345 3.7149823 -2.6299591
-4.6265535 3.669591 -2.6291459
-4.6243525 3.6928937 -2.63484
-4.6644502 3.6272531 -2.6307728
-4.6631031 3.6497722 -2.636467
-4.632319 3.6505141 -2.6258919
-4.6776295 3.5892708 -2.6250784
-4.6714845 3.609231 -2.6283324
-4.71382 3.5689149 -2.6323996
-4.6924124 3.575954 -2.6267054
-4.7273707 3.5326643 -2.6275189
-4.7212477 3.5499704 -2.6299591
-4.7749391 3.496006 -2.63484
-4.7595196 3.5077381 -2.6323996
-4.7440748 3.5194066 -2.6299591
-4.7929716 3.4618895 -2.6323996
-4.7858977 3.480989 -2.63484
-4.8048115 3.4234438 -2.6267054
-4.7970018 3.4406521 -2.6283324
-4.8381834 3.4015946 -2.6332133
-4.8229995 3.41361 -2.6307728
-4.8561325 3.3663092 -2.6307728
-4.8458509 3.3842845 -2.6315861
-4.8891544 3.3214195 -2.6315861
-4.8786964 3.3367617 -2.6315861
-4.8666854 3.3510349 -2.6307728
-4.9080391 3.2868865 -2.6299591
-4.9077158 3.3102965 -2.6356537
-4.942884 3.2641845 -2.6372805
-4.9350762 3.2825806 -2.6389074
-4.9495173 3.2240889 -2.6299591
-4.9561706 3.250644 -2.6389074
-4.9879403 3.1813409 -2.6340265
-4.9717727 3.1930451 -2.6307728
-4.9617162 3.2086501 -2.6307728
-4.9913669 3.1383662 -2.6250784
-4.9876571 3.1579411 -2.6283324
-5.0208473 3.1118424 -2.6299591
-5.0079455 3.1256673 -2.6283324
-5.0533109 3.0869753 -2.636467
-5.0233583 3.0903888 -2.6258919
-5.071732 3.0317638 -2.6307728
-5.0700097 3.052393 -2.63484
-5.0504866 3.0635037 -2.6299591
-5.0896306 2.9980211 -2.6299591
-5.0880437 3.0186572 -2.6340265
-5.107305 2.964174 -2.6291459
-5.110065 2.9884734 -2.6356537
-5.1263399 2.9311316 -2.6291459
-5.1313548 2.9554293 -2.636467
-5.1606193 2.8853538 -2.6323996
-5.153121 2.9024491 -2.6332133
-5.1275783 2.9105024 -2.6250784
-5.1695414 2.8466811 -2.6275189
-5.1781478 2.8726561 -2.636467
-5.1809011 2.810658 -2.624265
-5.1864758 2.8348062 -2.6315861
-5.2171574 2.7857015 -2.6332133
-5.207891 2.8029871 -2.6332133
-5.2383204 2.7338724 -2.6307728
-5.2345576 2.752866 -2.6332133
-5.214582 2.7633102 -2.6275189
-5.2563372 2.6990702 -2.6307728
-5.2494545 2.7164102 -2.6315861
-5.2764535 2.6676388 -2.6323996
-5.2554898 2.6766493 -2.6258919
-5.2776685 2.6244524 -2.624265
-5.2885375 2.6517646 -2.6340265
-5.3157682 2.5800519 -2.6307728
-5.3088245 2.598469 -2.6315861
-5.3039122 2.61675 -2.6332133
-5.3356166 2.5472434 -2.6323996
-5.3287864 2.565717 -2.6332133
-5.3482084 2.5121157 -2.6307728
-5.3435926 2.5304694 -2.6323996
-5.3676362 2.4790592 -2.6323996
-5.3416023 2.487426 -2.6234515
-5.3878541 2.4259193 -2.6307728
-5.3818703 2.4435894 -2.6315861
-5.3625379 2.4551613 -2.6258919
-5.4034076 2.3910766 -2.6307728
-5.3925319 2.4065511 -2.6291459
-5.4086828 2.3517616 -2.6258919
-5.3945746 2.3658068 -2.622638
-5.4254365 2.317502 -2.6267054
-5.4231639 2.3367045 -2.6291459
-5.4457459 2.2646148 -2.6258919
-5.4386044 2.2817121 -2.6258919
-5.441505 2.3030598 -2.6307728
-5.4687142 2.2328534 -2.6299591
-5.4532261 2.2465434 -2.6258919
-5.4677558 2.1913755 -2.622638
-5.4723144 2.2142923 -2.6283324
-5.4919944 2.1600339 -2.6275189
-5.4749928 2.1732314 -2.622638
-5.5043106 2.1029911 -2.6234515
-5.4952312 2.1215355 -2.622638
-5.498754 2.1427681 -2.6275189
-5.5143533 2.0661209 -2.6218245
-5.507472 2.0843961 -2.6218245
-5.5200129 2.0298758 -2.6185706
-5.5358753 2.055474 -2.6291459
-5.5419488 1.996317 -2.622638
-5.5373673 2.0143411 -2.6234515
-5.5505075 1.93941 -2.6177571
-5.5547247 1.9604881 -2.622638
-5.5447512 1.9776686 -2.621011
-5.578474 1.9088508 -2.6250784
-5.5759029 1.9275593 -2.6267054
-5.5834279 1.8714395 -2.6218245
-5.5757909 1.8883853 -2.621011
-5.5974536 1.8349367 -2.622638
-5.5948057 1.8546383 -2.624265
-5.6148095 1.7811219 -2.622638
-5.6158309 1.8019646 -2.6258919
-5.6084042 1.8190349 -2.6250784
-5.6192136 1.7426609 -2.6193843
-5.6238632 1.7645673 -2.624265
-5.6373444 1.7084581 -2.622638
-5.6403813 1.7298214 -2.6267054
-5.6430035 1.6704619 -2.6201975
-5.6356831 1.6886414 -2.6193843
-5.6535077 1.614712 -2.6177571
-5.667429 1.6390332 -2.6267054
-5.6587453 1.6558042 -2.6250784
-5.6670618 1.5801407 -2.6193843
-5.6726198 1.6009128 -2.624265
-5.6827059 1.5439574 -2.6218245
-5.681078 1.5637636 -2.6234515
-5.6958275 1.5091571 -2.6234515
-5.6892939 1.5265691 -2.622638
-5.7138467 1.4543179 -2.6250784
-5.7054539 1.4723448 -2.6234515
-5.7023077 1.4917177 -2.624265
-5.708684 1.4148712 -2.6185706
-5.7148433 1.4354682 -2.6234515
-5.7250471 1.3786895 -2.6218245
-5.7077765 1.3956277 -2.6161301
-5.738934 1.3439403 -2.624265
-5.7293501 1.3606981 -2.6218245
-5.7454834 1.3074507 -2.6234515
-5.7397985 1.3240805 -2.622638
-5.7579875 1.251233 -2.6234515
-5.7504592 1.2685304 -2.6218245
-5.7571435 1.2889837 -2.6267054
-5.7570081 1.2121423 -2.6193843
-5.749383 1.230462 -2.6177571
-5.7611346 1.1742098 -2.6177571
-5.7645741 1.1937855 -2.621011
-5.7829032 1.1209404 -2.622638
-5.7668052 1.136628 -2.6169438
-5.7665868 1.156464 -2.6185706
-5.7810416 1.0818919 -2.6185706
-5.7865887 1.1017573 -2.622638
-5.7807155 1.0432388 -2.6153166
-5.7933969 1.065377 -2.622638
-5.7801318 1.0046365 -2.6120629
-5.7893615 1.0260307 -2.6177571
-5.7991133 0.96939754 -2.6177571
-5.794066 0.98831582 -2.6169438
-5.8045416 0.91311902 -2.6161301
-5.7978745 0.93178159 -2.6145034
-5.796721 0.95028871 -2.6153166
-2.8429556 -4.1396222 -2.3770304
-2.8556395 -4.128685 -2.3761747
-2.8151507 -4.1563973 -2.3761747
-2.8343055 -4.1564941 -2.3813086
-2.7753918 -4.1852202 -2.3770304
-2.7882512 -4.1744905 -2.3761747
-2.80107 -4.1637211 -2.3753188
-2.7480505 -4.2010636 -2.3761747
-2.7592463 -4.1893897 -2.3744633
-2.7137606 -4.2060943 -2.3693292
-2.7289307 -4.2005796 -2.3710406
-2.6877446 -4.2270513 -2.3710406
-2.6971123 -4.2124968 -2.3676181
-2.638448 -4.2388444 -2.3633397
-2.663054 -4.2469182 -2.372752
-2.6725223 -4.2324166 -2.3693292
-2.6148007 -4.2619572 -2.3667622
-2.6272273 -4.2521839 -2.3659067
-2.5842288 -4.2721152 -2.3633397
-2.595952 -4.2628851 -2.362484
-2.5493605 -4.2782898 -2.3573501
-2.5691168 -4.2791114 -2.362484
-2.5081754 -4.3025641 -2.3573501
-2.524261 -4.2973409 -2.3590615
-2.535907 -4.2862778 -2.3573501
-2.476737 -4.3124013 -2.3539274
-2.4946461 -4.3104229 -2.3573501
-2.4504826 -4.3294516 -2.3547831
-2.4667583 -4.3264427 -2.3573501
-2.4224739 -4.3451853 -2.3547831
-2.4343426 -4.3344011 -2.3530719
-2.3737314 -4.3555412 -2.3479378
-2.3874032 -4.348062 -2.3479378
-2.3993011 -4.3373761 -2.3462265
-2.3446999 -4.3691859 -2.3470819
-2.3609939 -4.3665686 -2.349649
-2.3155923 -4.3826375 -2.3462265
-2.3293495 -4.3753409 -2.3462265
-2.2830715 -4.3894815 -2.3419483
-2.3027246 -4.3934951 -2.3479378
-2.2416499 -4.412806 -2.3428037
-2.2522073 -4.3993049 -2.3393812
-2.2685037 -4.397028 -2.3419483
-2.2139146 -4.4288068 -2.3436594
-2.2286308 -4.4234443 -2.3445151
-2.1788867 -4.4300337 -2.3368142
-2.1927619 -4.421164 -2.3359585
-2.1470838 -4.4375033 -2.3333917
-2.1641655 -4.4352322 -2.3359585
-2.1036172 -4.4562736 -2.3325357
-2.1168292 -4.4460096 -2.3308246
-2.1307855 -4.4393377 -2.3308246
-2.0740349 -4.4681263 -2.3316801
-2.0957394 -4.4759579 -2.3393812
-2.042166 -4.472847 -2.3274019
-2.0562086 -4.4664092 -2.3274019
-2.0139356 -4.4895916 -2.3291132
-2.0235956 -4.4713602 -2.3231235
-1.9650147 -4.4934669 -2.3214121
-1.9834987 -4.4971948 -2.3265462
-1.9983523 -4.4925928 -2.3274019
-1.938024 -4.5130444 -2.3248351
-1.9551355 -4.5115681 -2.3274019
-1.9068176 -4.5184703 -2.3214121
-1.9188793 -4.5074673 -2.318845
-1.875425 -4.5276771 -2.319701
-1.891126 -4.5231009 -2.3205566
-1.8299657 -4.5384445 -2.3162782
-1.8442147 -4.5326729 -2.3162782
-1.8605052 -4.5318737 -2.318845
-1.7984957 -4.5471201 -2.3145669
-1.8170407 -4.5475287 -2.3179896
-1.7705446 -4.5600147 -2.3154225
-1.7855209 -4.5561132 -2.3162782
-1.7399275 -4.5659819 -2.3128555
-1.7523166 -4.5554314 -2.3102884
-1.6931643 -4.5796742 -2.3111444
-1.7102389 -4.5791149 -2.3137114
-1.7188756 -4.5584965 -2.3060102
-1.6639239 -4.5865331 -2.309433
-1.6733502 -4.5677037 -2.3025877
-1.6334686 -4.5974674 -2.309433
-1.6460725 -4.5872083 -2.3068659
-1.6031511 -4.6062131 -2.3085773
-1.6196169 -4.6042819 -2.3102884
-1.5530841 -4.6042609 -2.3000207
-1.5687075 -4.6027803 -2.3017318
-1.5877099 -4.6058221 -2.3060102
-1.5263922 -4.6207938 -2.3034434
-1.5403287 -4.6142612 -2.3025877
-1.4940454 -4.6256547 -2.3008764
-1.5099379 -4.6223931 -2.3017318
-1.4616841 -4.6246085 -2.2957423
-1.4773057 -4.6234379 -2.2974536
-1.4158864 -4.6369452 -2.2948868
-1.4347335 -4.6406097 -2.299165
-1.4476874 -4.6309032 -2.296598
-1.3867239 -4.6457496 -2.2948868
-1.4007893 -4.6396399 -2.2940311
-1.3541651 -4.6459303 -2.2906084
-1.3741682 -4.6570187 -2.2983093
-1.3256186 -4.6597948 -2.2931752
-1.3417516 -4.6608186 -2.2957423
-1.2792521 -4.6633649 -2.288897
-1.2943796 -4.6610646 -2.2897527
-1.3082032 -4.6572037 -2.2897527
-1.2473624 -4.6682529 -2.2871857
-1.2639102 -4.6712909 -2.2906084
-1.2176453 -4.6779604 -2.2880414
-1.2340739 -4.677393 -2.2897527
-1.1816385 -4.6629453 -2.2769177
-1.2015934 -4.6765103 -2.2854745
-1.1427697 -4.6949525 -2.2871857
-1.1557816 -4.6843185 -2.2837632
-1.1726851 -4.6894326 -2.2880414
-1.1107746 -4.6989102 -2.2854745
-1.1250858 -4.6899276 -2.2829075
-1.0783951 -4.6934638 -2.2794847
-1.0947765 -4.6970949 -2.2829075
-1.0476712 -4.698565 -2.2786291
-1.0648204 -4.7058291 -2.2837632
-1.0010141 -4.701333 -2.2752066
-1.017307 -4.7052326 -2.2786291
-1.031309 -4.6984816 -2.2769177
-0.9717294 -4.7130108 -2.2777734
-0.98994893 -4.722147 -2.2837632
-0.94021285 -4.7138696 -2.2752066
-0.95717239 -4.7215219 -2.2803404
-0.91009438 -4.7216177 -2.276062
-0.92527109 -4.7205086 -2.2769177
-0.86440426 -4.7283578 -2.2752066
-0.87826276 -4.7202873 -2.2726395
-0.8945837 -4.7209015 -2.2743509
-0.83291137 -4.7285008 -2.2726395
-0.84794825 -4.7221537 -2.2709281
-0.80145216 -4.7284336 -2.2700725
-0.81651205 -4.7221875 -2.2683611
-0.77148217 -4.7370791 -2.2717838
-0.78570372 -4.7255783 -2.2675054
-0.72351354 -4.7281842 -2.2640829
-0.74086517 -4.736475 -2.2692168
-0.75574183 -4.7341242 -2.2692168
-0.69506007 -4.7470665 -2.2709281
-0.70945919 -4.7357969 -2.26665
-0.66271406 -4.733438 -2.2623715
-0.67783785 -4.7331219 -2.2632272
-0.63165528 -4.734035 -2.2606602
-0.6470136 -4.7356095 -2.2623715
-0.58535612 -4.7399826 -2.2606602
-0.60129833 -4.7398086 -2.2615159
-0.61665183 -4.7414813 -2.2632272
-0.55472147 -4.7363849 -2.2572374
-0.5695982 -4.7346187 -2.2572374
-0.52392483 -4.7380714 -2.2563818
-0.53982919 -4.7453833 -2.2606602
-0.49312946 -4.7395577 -2.2555263
-0.50922996 -4.7414913 -2.2572374
-0.44863033 -4.7548718 -2.2606602
-0.46321526 -4.7498407 -2.2589488
-0.47878197 -4.74648 -2.2580934
-0.41649148 -4.7414627 -2.2529593
-0.43221265 -4.7400556 -2.2529593
-0.38645089 -4.7512603 -2.2563818
-0.40159404 -4.7427478 -2.2529593
-0.35591441 -4.7445817 -2.2521036
-0.37109959 -4.7470441 -2.2538149
-0.30999961 -4.7423677 -2.2495365
-0.32502046 -4.7431741 -2.2503922
-0.34004942 -4.7439322 -2.2512479
-0.27979368 -4.7514892 -2.2529593
-0.29438338 -4.7451739 -2.2503922
-0.24853677 -4.7423654 -2.2478251
-0.26343435 -4.7415614 -2.2478251
-0.21765767 -4.7384539 -2.2452583
-0.23298623 -4.7467747 -2.2495365
-0.17249042 -4.7493577 -2.2495365
-0.18712519 -4.7415671 -2.246114
-0.20163518 -4.7319255 -2.2418356
-0.14144015 -4.7377248 -2.243547
-0.15620385 -4.7336431 -2.2418356
-0.11075756 -4.7349243 -2.2418356
