# .PCD v0.7 - Point Cloud Data file format
VERSION 0.7
FIELDS x y z
SIZE 4 4 4
TYPE F F F
COUNT 1 1 1
WIDTH 1479
HEIGHT 1
VIEWPOINT 0 0 0 1 0 0 0
POINTS 1479
DATA ascii
9.8872871 -10.904159 -2.0686691
9.8391438 -10.923641 -2.066164
9.7981739 -10.947119 -2.0647724
9.9655342 -10.848833 -2.0703392
9.9340734 -10.883014 -2.0708959
10.030806 -10.783105 -2.0697825
10.008979 -10.827652 -2.0722876
10.081723 -10.694723 -2.0656073
10.055159 -10.741417 -2.0678341
10.211365 -10.626016 -2.0711744
10.176072 -10.65982 -2.0711744
10.112545 -10.660125 -2.0650506
10.294968 -10.575462 -2.0742359
10.258466 -10.608121 -2.0739577
10.386238 -10.535957 -2.0792463
10.333685 -10.548728 -2.0753493
10.451262 -10.465863 -2.0786896
10.41554 -10.495834 -2.0781329
10.56961 -10.383101 -2.0823081
10.532713 -10.412078 -2.0814731
10.488718 -10.433943 -2.0792463
10.649237 -10.327039 -2.0848131
10.608236 -10.352143 -2.083143
10.717493 -10.256184 -2.0848131
10.686277 -10.294416 -2.0853701
10.7918 -10.198163 -2.0867617
10.756838 -10.229286 -2.086205
10.906626 -10.110258 -2.0901017
10.864672 -10.135016 -2.0881534
10.821227 -10.158254 -2.0859265
10.978992 -10.046302 -2.0914936
10.943007 -10.076718 -2.0906584
11.049518 -9.9805031 -2.0926068
11.02955 -10.029082 -2.0951121
11.125566 -9.9194851 -2.0948336
11.08108 -9.9424839 -2.0923285
11.202537 -9.8624735 -2.0976171
11.159637 -9.8871117 -2.0953903
11.293118 -9.8100395 -2.102349
11.25158 -9.8396101 -2.1006789
11.334376 -9.7835703 -2.1042974
4.2642274 -13.982566 -2.0544736
4.2219934 -14.001582 -2.0553086
4.3555355 -13.966843 -2.0561435
4.3087187 -13.970994 -2.0547519
4.4438562 -13.924439 -2.0541952
4.4066491 -13.959107 -2.0572569
4.5318732 -13.898127 -2.0544736
4.4912281 -13.921719 -2.055865
4.6195626 -13.854612 -2.052525
4.5698724 -13.858571 -2.0508549
4.7458968 -13.790903 -2.0497415
4.703331 -13.81594 -2.0511334
4.6624327 -13.838155 -2.0522466
4.828289 -13.741283 -2.0469582
4.7885475 -13.774056 -2.0494633
4.91186 -13.703217 -2.0458448
4.8694482 -13.720448 -2.046123
4.9927649 -13.650752 -2.042783
4.9552517 -13.681267 -2.0450096
5.124548 -13.597596 -2.0422263
5.0787358 -13.612659 -2.0419478
5.0352578 -13.62669 -2.0416696
5.2042017 -13.550339 -2.0399995
5.1587896 -13.559216 -2.0388861
5.2879882 -13.507228 -2.0386078
5.246243 -13.525619 -2.0388861
5.4077849 -13.431961 -2.0349894
5.3699636 -13.459922 -2.0366592
5.3312931 -13.485934 -2.0380511
5.5020132 -13.408625 -2.0369377
5.4508061 -13.410285 -2.0344326
5.5777545 -13.353689 -2.0338757
5.5395641 -13.380296 -2.0352676
5.6630955 -13.309113 -2.0327625
5.6212373 -13.333294 -2.0335975
5.7450342 -13.269632 -2.0322058
5.7025361 -13.285795 -2.0319273
5.8632989 -13.193966 -2.029144
5.8259006 -13.227836 -2.0313706
5.7866926 -13.251518 -2.0322058
5.9475622 -13.154023 -2.0288656
5.9070196 -13.17445 -2.029144
6.0292673 -13.114594 -2.0285873
5.9855714 -13.128064 -2.0277522
6.1102381 -13.061759 -2.0266387
6.0675058 -13.077298 -2.026082
6.2310567 -12.993576 -2.0252471
6.186233 -13.01059 -2.0246904
6.1495523 -13.038918 -2.026082
6.3122315 -12.947726 -2.0244122
6.2689376 -12.962144 -2.023577
6.3904347 -12.896047 -2.022742
6.35113 -12.924276 -2.0238554
6.4735799 -12.85451 -2.022742
6.4318032 -12.877679 -2.0230203
6.5930452 -12.784737 -2.0216286
6.5506129 -12.80653 -2.0216286
6.5148287 -12.835876 -2.0230203
6.6717901 -12.734876 -2.0205152
6.6395693 -12.776262 -2.023577
6.7557492 -12.695024 -2.0210719
6.7154632 -12.72086 -2.0216286
6.833497 -12.648841 -2.0205152
6.7909184 -12.665011 -2.0196803
6.9472132 -12.564116 -2.0177319
6.9086618 -12.587615 -2.0180101
6.8659339 -12.608716 -2.0177319
7.0282035 -12.518991 -2.0177319
6.9885793 -12.545689 -2.0182884
7.1089001 -12.473345 -2.0177319
7.0677285 -12.492167 -2.017175
7.1851492 -12.425002 -2.017175
7.1480513 -12.450949 -2.0177319
7.3092694 -12.359298 -2.0180101
7.274416 -12.38903 -2.0191236
7.2241473 -12.402368 -2.017175
7.3877993 -12.314828 -2.0182884
7.3561697 -12.349886 -2.020237
7.4682798 -12.263867 -2.0180101
7.4296198 -12.291955 -2.0185668
7.5483103 -12.221756 -2.0188451
7.5150557 -12.253851 -2.020237
7.6748028 -12.159121 -2.0207934
7.6312604 -12.184158 -2.0205152
7.5950375 -12.211436 -2.0210719
7.7499804 -12.108991 -2.0205152
7.7129626 -12.13495 -2.0207934
7.8290925 -12.060352 -2.0207934
7.7879467 -12.079896 -2.0199585
7.9133458 -12.019468 -2.0224636
7.8733788 -12.040955 -2.0219071
8.0184135 -11.928161 -2.0199585
7.9843125 -11.962921 -2.0213504
7.9477844 -11.989597 -2.0216286
8.1142387 -11.903951 -2.0246904
8.0634775 -11.909704 -2.0213504
8.1832438 -11.844588 -2.0232987
8.1437511 -11.86697 -2.022742
8.2695751 -11.801408 -2.0252471
8.2281322 -11.825513 -2.0246904
8.3815842 -11.724557 -2.0255256
8.3492947 -11.757288 -2.0266387
8.3077517 -11.776988 -2.0255256
8.4684591 -11.681539 -2.0277522
8.4296751 -11.709557 -2.0277522
8.5401993 -11.62182 -2.0269172
8.5062828 -11.656476 -2.0280306
8.6225147 -11.580641 -2.029144
8.5813799 -11.601301 -2.0280306
8.7508659 -11.516314 -2.0327625
8.7066631 -11.537364 -2.0313706
8.6608706 -11.551984 -2.029144
8.8315086 -11.472089 -2.0347109
8.7882042 -11.490338 -2.0330408
8.9175901 -11.430433 -2.0374944
8.8743572 -11.448999 -2.0358243
9.0010443 -11.385037 -2.0397213
8.9615631 -11.408586 -2.0388861
4.0260353 -14.00355 -2.0477931
4.1242161 -14.003855 -2.0516901
4.0749888 -14.007947 -2.0502982
4.1723285 -13.995797 -2.052525
3.4760325 -4.9606028 -2.2046618
3.4584904 -4.9705596 -2.2039778
3.2383237 -4.6213717 -2.203531
3.3581145 -4.8262992 -2.2959208
3.042655 -4.342135 -2.2146404
3.0292933 -4.3537159 -2.2154112
4.1979566 -2.3818648 -2.2846186
1.0244744 -4.4058971 -2.2720847
1.0671412 -4.3975968 -2.2729824
1.0529042 -4.3991899 -2.2720847
1.0362593 -4.3939595 -2.267596
1.0942191 -4.3854117 -2.2702892
1.080864 -4.3905635 -2.2711871
1.1225162 -4.3782544 -2.2702892
1.1096325 -4.3852243 -2.2720847
1.1503109 -4.3691859 -2.2693915
1.1362654 -4.3747063 -2.2702892
1.177569 -4.3582153 -2.267596
1.1635706 -4.3638239 -2.2684939
1.2179015 -4.3415489 -2.2649031
1.2054067 -4.3524532 -2.2684939
1.1905996 -4.3491154 -2.2649031
1.2347343 -4.3460827 -2.2693915
1.2774065 -4.3374581 -2.2711871
1.2600206 -4.3313742 -2.265801
1.3148124 -4.3113203 -2.2640054
1.3043572 -4.3256969 -2.2693915
1.2922932 -4.3349113 -2.2720847
1.3450675 -4.3132119 -2.2693915
1.3315109 -4.3174162 -2.2693915
1.3741877 -4.3058987 -2.2702892
1.3611919 -4.3118987 -2.2711871
1.4012156 -4.2971792 -2.2702892
1.3877084 -4.3015599 -2.2702892
1.4302496 -4.2894869 -2.2711871
1.4148979 -4.2908115 -2.2693915
1.4577488 -4.2821078 -2.2720847
1.4431475 -4.2832789 -2.2702892
1.4983457 -4.2642837 -2.2702892
1.4847833 -4.2709169 -2.2711871
1.5257126 -4.2564673 -2.2711871
1.5123329 -4.2612395 -2.2711871
1.5507119 -4.2398119 -2.267596
1.5379936 -4.2463436 -2.2684939
1.5793084 -4.2330589 -2.2693915
1.5660018 -4.2379994 -2.2693915
1.6160249 -4.2076931 -2.2640054
1.6066115 -4.2227716 -2.2693915
1.6470727 -4.2071552 -2.2693915
1.6344935 -4.213975 -2.2702892
1.689384 -4.1961246 -2.2720847
1.6748683 -4.1980915 -2.2702892
1.6649569 -4.2116423 -2.2747779
1.7144628 -4.1782141 -2.2684939
1.7275803 -4.1728077 -2.2684939
1.7605842 -4.1376333 -2.2586191
1.7510191 -4.1533298 -2.2640054
1.7763941 -4.1386514 -2.2622101
1.8297043 -4.1173167 -2.2631078
1.8160411 -4.1233611 -2.2631078
1.8009322 -4.1241322 -2.2604146
1.8606722 -4.1151857 -2.2684939
1.8455415 -4.1161189 -2.265801
1.8812665 -4.0920472 -2.2622101
1.8691429 -4.0995631 -2.2631078
1.9068495 -4.076242 -2.2604146
1.8925296 -4.07897 -2.2586191
1.9435718 -4.0529156 -2.2577214
1.9324234 -4.0641804 -2.2604146
1.918121 -4.066999 -2.2586191
1.9728364 -4.0467062 -2.2613122
1.9616702 -4.0561018 -2.2631078
2.0028951 -4.0418892 -2.265801
1.9879044 -4.0453 -2.2640054
2.0155835 -4.0355768 -2.265801
2.0626204 -3.9996777 -2.2604146
2.0399837 -4.019289 -2.2640054
2.0884058 -3.9862747 -2.2604146
2.0776477 -3.997936 -2.2631078
2.1025875 -3.9828556 -2.2622101
2.1373243 -3.9561992 -2.2586191
2.1299522 -3.9723444 -2.2640054
2.156415 -3.9600766 -2.2649031
2.1917202 -3.9345107 -2.2622101
2.2274146 -3.9082434 -2.259517
2.2160058 -3.9167769 -2.2604146
2.2474537 -3.8864353 -2.2550282
2.2352328 -3.8934767 -2.2550282
2.2935193 -3.8781285 -2.2631078
2.2668486 -3.8917103 -2.2622101
2.3038621 -3.8678329 -2.2613122
2.3387661 -3.8405519 -2.2586191
2.3297157 -3.8544047 -2.2622101
2.3590941 -3.819699 -2.2550282
2.3582952 -3.8453739 -2.265801
2.4020381 -3.8055272 -2.2604146
2.375802 -3.8198569 -2.259517
2.4139812 -3.7979622 -2.2604146
2.4483812 -3.7716169 -2.2586191
2.4384573 -3.7822945 -2.2604146
2.467772 -3.7482641 -2.2541306
2.5136092 -3.7392354 -2.2631078
2.4962349 -3.7401171 -2.2586191
2.4864476 -3.7509201 -2.2604146
2.539717 -3.7258782 -2.2649031
2.5209854 -3.7234793 -2.2586191
2.5590134 -3.7039661 -2.2613122
2.5503981 -3.7164075 -2.2640054
2.5865991 -3.6913035 -2.2640054
2.5692406 -3.6925254 -2.259517
2.6171162 -3.6609461 -2.2604146
2.6087067 -3.6735218 -2.2631078
2.5847907 -3.6641741 -2.2523353
2.6679873 -3.6306963 -2.2631078
2.6548793 -3.6380801 -2.2622101
2.6886122 -3.6109941 -2.2613122
2.724858 -3.5859673 -2.2622101
2.7129517 -3.5949833 -2.2622101
2.7005718 -3.6020584 -2.2613122
2.742974 -3.5631108 -2.2586191
2.7285094 -3.5674517 -2.2559259
2.7648273 -3.5439141 -2.2577214
2.7493007 -3.5469322 -2.2541306
2.7920883 -3.5315938 -2.2613122
2.8253496 -3.5027452 -2.2604146
2.8098612 -3.5060253 -2.2568238
2.8053954 -3.5256021 -2.2631078
2.8295815 -3.4855263 -2.2550282
2.8714921 -3.4673398 -2.2613122
2.860507 -3.4787226 -2.2622101
2.8955185 -3.4519682 -2.2631078
2.8823709 -3.4583015 -2.2613122
2.9291189 -3.4235034 -2.2631078
2.9200647 -3.435921 -2.2649031
2.8982792 -3.4332948 -2.2568238
2.9423785 -3.395577 -2.2568238
2.9398596 -3.4142845 -2.2631078
2.9695497 -3.3837385 -2.2613122
2.9518569 -3.3849695 -2.2559259
2.9895504 -3.3612986 -2.259517
2.9783878 -3.3711939 -2.259517
3.0034344 -3.334481 -2.2541306
3.0000956 -3.3518903 -2.259517
3.0351222 -3.3250482 -2.2613122
3.0663249 -3.2962956 -2.2613122
3.0656595 -3.3164117 -2.2684939
3.0844414 -3.2719853 -2.2586191
3.0766654 -3.2866461 -2.2613122
3.1243761 -3.2512467 -2.2649031
3.1123431 -3.2602968 -2.2640054
3.0934753 -3.2609825 -2.2577214
3.1453063 -3.2310028 -2.2649031
3.1296053 -3.2362764 -2.2613122
3.1642902 -3.209904 -2.2640054
3.1900046 -3.1944611 -2.267596
3.1824708 -3.2070048 -2.2693915
3.2141471 -3.1574309 -2.2631078
3.211838 -3.1750517 -2.2684939
3.1993134 -3.1826055 -2.2666986
3.2280545 -3.130388 -2.2586191
3.250036 -3.1101458 -2.259517
3.2693088 -3.149425 -2.280164
3.2610862 -3.1011515 -2.2604146
3.2933183 -3.0721436 -2.2622101
3.2758322 -3.075135 -2.2568238
3.3187006 -3.0367694 -2.259517
3.3144033 -3.0520229 -2.2631078
3.3435473 -3.020067 -2.2631078
3.3295469 -3.0275307 -2.2604146
3.3549762 -2.991276 -2.2577214
3.3468924 -3.0029945 -2.2586191
3.3857775 -2.9807663 -2.265801
3.381747 -2.9961288 -2.2693915
3.4079843 -2.9416928 -2.2613122
3.4000752 -2.9535573 -2.2622101
3.3889167 -2.963639 -2.2613122
3.4359212 -2.9283369 -2.267596
3.4307747 -2.9426074 -2.2702892
3.455267 -2.9054847 -2.267596
3.4442494 -2.9157724 -2.2666986
3.4824965 -2.8727911 -2.267596
3.4712076 -2.8808286 -2.265801
3.4588921 -2.8900316 -2.2640054
3.5070181 -2.8541439 -2.2711871
3.5234888 -2.8309329 -2.2702892
3.5090189 -2.8374934 -2.2666986
3.5393853 -2.8052821 -2.2684939
3.535651 -2.8214626 -2.2720847
3.5625715 -2.7873936 -2.2720847
3.5509892 -2.7963603 -2.2702892
4.0062304 -2.2060874 -2.2972202
4.0055318 -2.2221305 -2.3008113
4.0156803 -2.1776147 -2.2945273
4.0103879 -2.1910765 -2.2954249
4.0260267 -2.1659794 -2.2963226
4.0430984 -2.126276 -2.2945273
4.0427151 -2.1423147 -2.2981181
0.79303479 -4.2010365 -2.2731814
0.80556303 -4.1950555 -2.2713037
0.84547532 -4.1817894 -2.2684867
0.83198953 -4.182693 -2.2675478
0.87318498 -4.1796994 -2.2703648
0.85967499 -4.1843019 -2.2713037
0.90053004 -4.1757002 -2.2713037
0.92828119 -4.1768551 -2.2750592
3.3926783 -2.6014123 -2.2731814
3.4145889 -2.5843074 -2.2769372
3.4120719 -2.5993021 -2.2806931
3.4340358 -2.564316 -2.278815
3.4113991 -2.5650768 -2.2694256
3.436306 -2.5316126 -2.2694256
3.4411023 -2.5518622 -2.2778761
3.4761987 -2.5098813 -2.2797542
3.4664278 -2.5203564 -2.278815
3.4556432 -2.5291483 -2.2769372
3.4908955 -2.4863563 -2.278815
3.4873726 -2.5003979 -2.2816319
3.8040097 -2.031152 -2.2928994
3.8053856 -2.0472758 -2.2975938
3.8280292 -1.9969937 -2.295716
3.8151338 -2.0063889 -2.2919605
3.8025703 -2.0150571 -2.2882044
3.8345616 -1.9690052 -2.2919605
3.822083 -1.9777956 -2.2882044
3.8566532 -1.9489807 -2.2975938
3.8423016 -1.9577506 -2.2928994
3.8659966 -1.9224625 -2.295716
3.8580213 -1.9344804 -2.2947772
3.8811712 -1.8996866 -2.2975938
3.90274 -1.863184 -2.2994719
3.88222 -1.8692209 -2.2910213
3.9111729 -1.8371241 -2.2975938
3.9117663 -1.8524257 -2.3013499
1.0094298 -4.4038682 -2.2693915
1.2464068 -4.3353114 -2.265801
1.4690324 -4.2688003 -2.267596
1.5908161 -4.2211089 -2.265801
1.6992519 -4.1805649 -2.2666986
1.7879673 -4.1297698 -2.2604146
2.0281503 -4.0272741 -2.2649031
2.0517871 -4.0112696 -2.2631078
2.1157835 -3.9758611 -2.2622101
2.1776185 -3.9382484 -2.2604146
2.1669559 -3.948204 -2.2622101
2.2047551 -3.9272211 -2.2622101
2.2758946 -3.8760679 -2.2577214
2.3132436 -3.8559787 -2.2586191
2.3877907 -3.8123744 -2.259517
2.4249377 -3.7888544 -2.259517
2.4589188 -3.7604856 -2.2568238
2.6444862 -3.6478496 -2.2631078
2.6281977 -3.6507969 -2.259517
2.6751289 -3.616549 -2.259517
2.77546 -3.5333207 -2.2568238
2.8479106 -3.4844267 -2.2604146
3.0204778 -3.3311229 -2.2586191
3.0419259 -3.3115482 -2.2586191
3.1479373 -3.2134457 -2.259517
3.3042641 -3.0629971 -2.2631078
3.4892397 -2.8589618 -2.265801
0.78047705 -4.2069798 -2.2750592
0.81918401 -4.1870193 -2.2684867
0.88557327 -4.1698713 -2.2666087
0.91439903 -4.1763005 -2.2731814
2.3538401 -11.083455 -2.1348038
2.4288962 -11.093407 -2.1396177
2.3919623 -11.091375 -2.1377661
2.500484 -11.07749 -2.1396177
2.4628828 -11.081883 -2.1388772
1.5947849 -10.035066 -2.1597869
1.5632504 -10.040027 -2.1597869
1.6635439 -10.037778 -2.1626976
1.6296211 -10.039378 -2.1618659
1.7275757 -10.032911 -2.1639452
1.6950709 -10.032502 -2.1626976
1.8266041 -10.021321 -2.1651926
1.7930175 -10.025397 -2.1647768
1.7615125 -10.030981 -2.1647768
1.8891704 -10.007724 -2.1647768
1.8587909 -10.01938 -2.1660242
1.9558773 -9.9968948 -2.1651926
1.9213395 -10.005582 -2.1656084
2.019038 -9.9863253 -2.1656084
1.9876559 -9.9926186 -2.1656084
2.1153271 -9.9603748 -2.164361
2.0826852 -9.9692488 -2.1647768
2.0504014 -9.9799328 -2.1656084
2.1774478 -9.9449759 -2.1639452
2.1453698 -9.9479427 -2.1631134
2.2394712 -9.9211664 -2.1618659
2.2074072 -9.9323568 -2.1626976
2.2446213 -11.102079 -2.1340632
2.2047482 -11.084016 -2.1292493
2.3162692 -11.087352 -2.1340632
2.2783022 -11.089195 -2.1329522
1.0369785 -9.158288 -2.1838574
1.0037313 -9.1502447 -2.1810908
1.1262689 -9.1595011 -2.1866243
1.094964 -9.1554565 -2.1847799
1.0655203 -9.1530514 -2.1833963
1.1838943 -9.1404562 -2.1838574
1.1543074 -9.1501245 -2.185241
1.2420889 -9.1386223 -2.185241
1.2131166 -9.1405516 -2.1847799
1.2999777 -9.1227045 -2.1833963
1.2710427 -9.1248169 -2.1829352
1.3877814 -9.1117296 -2.1838574
1.3597239 -9.119895 -2.1847799
1.3305037 -9.1202698 -2.1838574
1.4465927 -9.1025782 -2.1838574
1.4188868 -9.1128464 -2.185241
1.5069317 -9.0927839 -2.1838574
1.4777057 -9.1034937 -2.185241
1.5630423 -9.0773821 -2.1824741
1.5348421 -9.0841665 -2.1829352
0.54191196 -8.4027987 -2.2043006
0.59616393 -8.3991241 -2.2043006
0.56804663 -8.397193 -2.2032876
0.64892393 -8.3952122 -2.2043006
0.62283403 -8.4010677 -2.2053134
0.70507467 -8.3965073 -2.2058201
0.67753768 -8.4026566 -2.2068331
0.78489786 -8.3971949 -2.2078462
0.75868708 -8.4015465 -2.2083526
0.73245764 -8.4058151 -2.208859
0.84037936 -8.3898792 -2.2073395
0.81236613 -8.3906946 -2.2068331
0.89307737 -8.3844337 -2.2073395
0.86673307 -8.3871975 -2.2073395
0.94714093 -8.3648691 -2.2037942
0.91920286 -8.3796635 -2.2068331
1.0276303 -8.3573122 -2.2043006
1.0003699 -8.3645153 -2.2053134
0.97363931 -8.3637743 -2.2043006
1.0795892 -8.3351517 -2.2002487
1.0526689 -8.3444433 -2.2017679
0.098466143 -7.7279162 -2.2161243
0.14997748 -7.74055 -2.2199836
0.12427781 -7.7390814 -2.2194321
0.19870889 -7.7432976 -2.221086
0.17429473 -7.7400403 -2.2199836
0.27383432 -7.725616 -2.2166758
0.24993427 -7.737967 -2.2199836
0.22421873 -7.7368312 -2.2194321
0.32325175 -7.7448716 -2.2227397
0.29862297 -7.7381644 -2.2205348
0.37479666 -7.7463984 -2.2238424
0.34884667 -7.7418365 -2.2221885
0.42377666 -7.749649 -2.2254961
0.39972478 -7.7567019 -2.2271497
0.49999312 -7.7528119 -2.2277014
0.47404605 -7.7505884 -2.2265985
0.44958377 -7.7501206 -2.2260473
0.55004853 -7.7494211 -2.2277014
0.52434713 -7.7512026 -2.2277014
0.59902358 -7.7496452 -2.2288039
0.57424945 -7.7457366 -2.2271497
0.64992559 -7.7397547 -2.2271497
0.62379223 -7.7361183 -2.2254961
-0.20717897 -7.1488996 -2.2316778
-0.22969763 -7.1501217 -2.2322736
-0.16113856 -7.1558146 -2.233465
-0.18491594 -7.1571493 -2.2340608
-0.11507794 -7.1662502 -2.2364438
-0.13858369 -7.1524677 -2.2322736
-0.068871774 -7.1744809 -2.2388268
-0.092712417 -7.1780314 -2.2400181
-0.023785936 -7.172863 -2.2382309
-0.046294831 -7.1689339 -2.2370393
0.046369892 -7.1803894 -2.2406139
0.022546334 -7.1766853 -2.2394223
-3.1378787e-07 -7.1786299 -2.2400181
0.091435589 -7.1761379 -2.2394223
0.068964489 -7.1840267 -2.2418056
0.13910085 -7.1791916 -2.2406139
0.11526295 -7.1777043 -2.2400181
0.18430465 -7.181993 -2.2418056
0.16169754 -7.1806278 -2.2412097
0.25455725 -7.1817565 -2.2424011
0.2318086 -7.1767964 -2.2406139
0.20823088 -7.1851592 -2.2429969
-0.53087234 -6.5837517 -2.2318556
-0.4904471 -6.6153865 -2.2414591
-0.50974768 -6.5797195 -2.2299349
-0.45105094 -6.6504736 -2.2523432
-0.47100303 -6.6357942 -2.2478614
-0.38668886 -6.6659141 -2.2561846
-0.40751317 -6.6627755 -2.2555442
-0.42948222 -6.6594968 -2.254904
-0.34450495 -6.6625352 -2.2542639
-0.36553752 -6.6633124 -2.254904
-0.30039486 -6.6665668 -2.254904
-0.32142776 -6.6674829 -2.2555442
-0.25864887 -6.6721091 -2.2561846
-0.27960894 -6.6712637 -2.2561846
-0.19348022 -6.6762123 -2.2568247
-0.21469609 -6.6831474 -2.2593858
-0.23665592 -6.6767178 -2.2574651
-0.15061955 -6.6886883 -2.2606661
-0.17260294 -6.6805758 -2.2581053
-0.8213979 -6.1890488 -2.2723818
-0.84007823 -6.180851 -2.2703297
-0.78070772 -6.1886306 -2.2703297
-0.80135161 -6.195466 -2.2737498
-0.72170126 -6.1995726 -2.2716978
-0.741844 -6.2028728 -2.2737498
-0.76195025 -6.1966486 -2.2723818
-0.68308836 -6.2171807 -2.2764859
-0.70261639 -6.2150044 -2.2764859
-0.6429258 -6.2214627 -2.2764859
-0.66315418 -6.215559 -2.2751181
-0.60255462 -6.2236142 -2.2758019
-0.62318975 -6.2215819 -2.2758019
-0.5432747 -6.2347283 -2.2778542
-0.56285924 -6.2329907 -2.2778542
-0.58352572 -6.2310901 -2.2778542
-0.50254858 -6.2324867 -2.2758019
-0.5224402 -6.234623 -2.2771702
-0.4617351 -6.2281051 -2.2730658
-0.48253107 -6.2284131 -2.2737498
-0.42233893 -6.2271328 -2.2716978
-0.44203332 -6.2276502 -2.2723818
-0.57715982 -6.623601 -2.2465808
-0.55361032 -6.6065969 -2.2401786
-1.1048729 -5.7483325 -2.2857361
-1.0673895 -5.7535157 -2.2850084
-1.085459 -5.750134 -2.2850084
-1.0114273 -5.7655082 -2.2857361
-1.0311971 -5.7657905 -2.2871909
-1.0489746 -5.7550077 -2.284281
-0.97425085 -5.7662387 -2.2835536
-0.9933092 -5.7686572 -2.2857361
-0.93628496 -5.7744122 -2.284281
-0.95704436 -5.7747846 -2.2857361
-0.90027183 -5.7820215 -2.2850084
-0.91843164 -5.7791648 -2.2850084
-0.84479159 -5.7979188 -2.2879186
-0.86502445 -5.7949352 -2.2879186
-0.88238317 -5.7866631 -2.2857361
-0.80885983 -5.8068023 -2.2893734
-0.82552105 -5.7931666 -2.2850084
-0.76962835 -5.7989769 -2.284281
-0.78784281 -5.7965307 -2.284281
-0.73169762 -5.8001299 -2.2828262
-0.75087172 -5.8051929 -2.2857361
-1.3440957 -5.3118143 -2.2886415
-1.3626095 -5.3147163 -2.2917249
-1.3093241 -5.3185916 -2.2878706
-1.3282955 -5.319592 -2.2901833
-1.2590581 -5.334507 -2.2894123
-1.277099 -5.3359098 -2.2917249
-1.293421 -5.3300781 -2.2909541
-1.2236505 -5.3427401 -2.2894123
-1.2417792 -5.3404508 -2.2901833
-1.1920608 -5.3593307 -2.2932665
-1.2080792 -5.3519583 -2.2917249
-1.1562601 -5.3615046 -2.2909541
-1.1740333 -5.3576407 -2.2909541
-1.1058559 -5.37778 -2.2932665
-1.1223675 -5.3724728 -2.2924957
-1.1384741 -5.3653092 -2.2909541
-1.070385 -5.3811884 -2.2917249
-1.0889555 -5.3812275 -2.2932665
-1.0356122 -5.3879886 -2.2917249
-1.0518262 -5.3810863 -2.2901833
-1.0007969 -5.3945637 -2.2917249
-1.0170544 -5.3877668 -2.2901833
-0.94802433 -5.404088 -2.2917249
-0.96691459 -5.4063644 -2.2940373
-0.98450613 -5.4013128 -2.2932665
-1.5900635 -4.9258718 -2.30457
-1.604964 -4.9191146 -2.3037562
-1.5562594 -4.9328241 -2.302943
-1.5709423 -4.9224148 -2.3005025
-1.5107678 -4.9507675 -2.30457
-1.5263127 -4.9459968 -2.30457
-1.540755 -4.9376888 -2.302943
-1.4763347 -4.9554253 -2.3021295
-1.4932868 -4.9522514 -2.302943
-1.4487439 -4.9768834 -2.3078239
-1.4612753 -4.9617915 -2.302943
-1.4155767 -4.9826193 -2.3061967
-1.4312227 -4.978148 -2.3061967
-1.3838587 -4.9934182 -2.3070104
-1.3975651 -4.9820085 -2.3037562
-1.3358622 -5.0064721 -2.3070104
-1.3525366 -5.0057783 -2.3086371
-1.3639174 -4.9856434 -2.301316
-1.302629 -5.0152216 -2.3070104
-1.3159969 -4.9985061 -2.301316
-1.2692991 -5.0162215 -2.3037562
-1.2850515 -5.0122094 -2.3037562
-1.2360058 -5.0207663 -2.3021295
-1.2535338 -5.0201845 -2.3037562
-1.4324892 -4.6942492 -2.3231235
-1.4456295 -4.6845441 -2.3205566
-1.8155485 -4.5072241 -2.3000207
-1.8412708 -4.5299678 -2.3145669
-1.787069 -4.520535 -2.3008764
-1.8099704 -4.536726 -2.312
-1.7565318 -4.5286107 -2.299165
-1.7781328 -4.5395927 -2.3077216
-1.7336793 -4.5567551 -2.3077216
-1.7448902 -4.5408564 -2.3025877
-1.6961244 -4.5901432 -2.3162782
-1.7107046 -4.5827994 -2.3154225
-1.7212676 -4.5672536 -2.3102884
-1.6695251 -4.609499 -2.3205566
-1.6858605 -4.6093249 -2.3231235
-1.63791 -4.6150737 -2.3179896
-1.6550355 -4.6147218 -2.3205566
-1.6104478 -4.6323843 -2.3214121
-1.6243936 -4.6255965 -2.3205566
-1.5632526 -4.6370778 -2.3162782
-1.5813096 -4.6424117 -2.3214121
-1.5976512 -4.642549 -2.3239791
-1.5369934 -4.6610785 -2.3231235
-1.5495821 -4.6473813 -2.318845
-1.507121 -4.6689234 -2.322268
-1.5212208 -4.662447 -2.3214121
-1.4750345 -4.6753683 -2.3205566
-1.4905306 -4.6704512 -2.3205566
-1.4592623 -4.6765275 -2.318845
-1.7448729 -4.3317671 -2.3456964
-1.7175206 -4.3446069 -2.3465941
-1.7318234 -4.3408489 -2.3474915
-1.6907209 -4.3589396 -2.3483894
-1.703863 -4.3499813 -2.3465941
-1.6606307 -4.3647561 -2.3456964
-1.6757368 -4.3608932 -2.3465941
-1.8562828 -4.5238366 -2.3145669
-2.0817926 -4.1663222 -2.3394125
-2.091656 -4.1533766 -2.3358216
-2.0556333 -4.181282 -2.3403101
-2.0686932 -4.172842 -2.3394125
-2.0285888 -4.1944695 -2.3403101
-2.0424871 -4.1877193 -2.3403101
-1.9882312 -4.2137489 -2.3403101
-2.0006921 -4.2058687 -2.3394125
-2.0146284 -4.1992111 -2.3394125
-1.9609795 -4.2265005 -2.3403101
-1.975742 -4.2215929 -2.3412077
-1.9306785 -4.2325716 -2.3367193
-1.9462063 -4.2313571 -2.3394125
-1.9098979 -4.2576642 -2.3439009
-1.9158986 -4.2353592 -2.3349237
-1.8674787 -4.2744899 -2.3430033
-1.880898 -4.2686024 -2.3430033
-1.8950429 -4.2623415 -2.3430033
-1.8412898 -4.2877808 -2.3439009
-1.8547508 -4.2819753 -2.3439009
-1.8100349 -4.2933111 -2.3403101
-1.8263112 -4.2941823 -2.3439009
-1.7870576 -4.3164697 -2.3465941
-1.8034291 -4.3154669 -2.349287
-1.7571265 -4.3229527 -2.3439009
-1.7748449 -4.3253694 -2.3483894
-2.3226521 -3.7314966 -2.3370295
-2.3334255 -3.7226853 -2.3360908
-2.2920418 -3.7358813 -2.330457
-2.3155596 -3.7462857 -2.3417244
-2.274266 -3.7611825 -2.3370295
-2.2823961 -3.7479863 -2.3332739
-2.2445059 -3.7666883 -2.3313959
-2.2578933 -3.7607386 -2.332335
-2.2180288 -3.804842 -2.3417244
-2.2326527 -3.802424 -2.3445413
-2.2425525 -3.7904398 -2.3417244
-2.1960502 -3.8236799 -2.3445413
-2.2071674 -3.8152332 -2.3436022
-2.1739213 -3.842392 -2.3473577
-2.1822772 -3.8274922 -2.3426633
-2.1413264 -3.842468 -2.3389075
-2.1594386 -3.8465004 -2.3454802
-2.1070464 -3.8694167 -2.3426633
-2.117141 -3.8558466 -2.3389075
-2.1302812 -3.8526382 -2.3407853
-2.0877018 -3.8919158 -2.3482969
-2.0923617 -3.8713562 -2.3398464
-2.0592265 -3.8990705 -2.3445413
-2.0688257 -3.8859851 -2.3407853
-2.0283022 -3.9013197 -2.3379683
-2.0520215 -3.9168274 -2.3511138
-1.9987546 -3.9363549 -2.3473577
-2.0078936 -3.923768 -2.3436022
-2.0176558 -3.9108109 -2.3398464
-1.9701357 -3.9428618 -2.3436022
-1.982513 -3.9366527 -2.3436022
-1.9438546 -3.953917 -2.3426633
-1.9561704 -3.9458678 -2.3417244
-1.9190493 -3.967977 -2.3436022
-1.9321971 -3.9615915 -2.3436022
-1.8838851 -3.9926038 -2.3473577
-1.8949022 -3.9834766 -2.3454802
-1.9096292 -3.9803548 -2.3473577
-1.8558341 -3.9998806 -2.3445413
-1.8705851 -3.9969029 -2.3464191
-2.2104356 -3.5512135 -2.3502479
-2.2262113 -3.5516386 -2.3551459
-2.715338 -2.8966038 -2.3545878
-2.7000816 -2.9178655 -2.3576484
-2.7057176 -2.9055924 -2.3545878
-2.6702788 -2.9428418 -2.3566284
-2.6788626 -2.9327002 -2.355608
-2.6880622 -2.9242704 -2.355608
-2.6494396 -2.9569993 -2.3545878
-2.6610198 -2.9512169 -2.3566284
-2.6325681 -2.9766243 -2.3566284
-2.6458564 -2.9717324 -2.359689
-2.618947 -3.000042 -2.3617291
-2.6226835 -2.9853375 -2.3566284
-2.585027 -3.0202677 -2.3576484
-2.5950284 -3.0116789 -2.3576484
-2.6050012 -3.0030568 -2.3576484
-2.5671096 -3.0377636 -2.3586686
-2.5777545 -3.0309951 -2.359689
-2.5496428 -3.0569203 -2.360709
-2.5597658 -3.0484486 -2.360709
-2.5320354 -3.075978 -2.3627496
-2.6451368 -3.2133763 -2.3384914
-2.5416863 -3.0680079 -2.3627496
-2.500231 -3.0974641 -2.360709
-2.617455 -3.2426896 -2.3414307
-2.515373 -3.0962696 -2.3658099
-2.624331 -3.2303903 -2.3384914
-2.5212708 -3.0825851 -2.3617291
-2.6350291 -3.2216699 -2.3384914
-2.4866073 -3.1216187 -2.3668301
-2.5932007 -3.2554333 -2.3384914
-2.4953256 -3.1124489 -2.3658099
-2.6034153 -3.2472703 -2.3384914
-2.4568295 -3.1254392 -2.3576484
-2.5721247 -3.2721109 -2.3384914
-2.4698377 -3.121753 -2.360709
-2.5802276 -3.2612803 -2.3365324
-2.446084 -3.1534729 -2.3668301
-2.5509403 -3.2886529 -2.3384914
-2.4512336 -3.1385651 -2.3617291
-2.5618322 -3.2801754 -2.3384914
-2.4235783 -3.1664705 -2.3647897
-2.5296507 -3.305057 -2.3384914
-2.4345632 -3.1602042 -2.3658099
-2.5421491 -3.2998571 -2.340451
-2.3904498 -3.1872547 -2.3627496
-2.4982731 -3.3310187 -2.3394711
-2.4005239 -3.1775184 -2.3617291
-2.5172429 -3.3320165 -2.3463292
-2.4130645 -3.1744902 -2.3647897
-2.5228975 -3.3189802 -2.3424103
-2.3724232 -3.2049766 -2.3647897
-2.482481 -3.3536572 -2.3443696
-2.383508 -3.1988869 -2.3658099
-2.4888377 -3.3402493 -2.340451
-2.3526919 -3.2216189 -2.3658099
-2.460773 -3.3696179 -2.3443696
-2.3654001 -3.2165718 -2.3678503
-2.4719329 -3.3614397 -2.3443696
-2.3206573 -3.242656 -2.3647897
-2.4303434 -3.3959205 -2.3463292
-2.3318384 -3.2367449 -2.3658099
-2.4389615 -3.3854387 -2.3443696
-2.3430059 -3.2307959 -2.3668301
-2.4434435 -3.3692906 -2.3384914
-2.3036368 -3.263196 -2.3688705
-2.4043403 -3.4058464 -2.3424103
-2.3108876 -3.2517357 -2.3658099
-2.4160383 -3.3996973 -2.34339
-2.2766187 -3.2695336 -2.3627496
-2.3882749 -3.4298871 -2.3482883
-2.2898412 -3.2665906 -2.3658099
-2.3930335 -3.4138002 -2.3424103
-2.2564313 -3.2855854 -2.3637695
-2.3719983 -3.4538624 -2.3541665
-2.2677207 -3.2798951 -2.3647897
-2.3749049 -3.4349196 -2.3463292
-2.2399907 -3.307209 -2.3688705
-2.3535564 -3.4748819 -2.3580852
-2.2513392 -3.3015771 -2.3698907
-2.3585677 -3.4588273 -2.3522069
-2.2081406 -3.3285589 -2.3688705
-2.319128 -3.4958615 -2.3571055
-2.2185869 -3.3216052 -2.3688705
-2.3291306 -3.4871082 -2.3561258
-2.2280514 -3.3131917 -2.3678503
-2.3449395 -3.4870081 -2.3610241
-2.1865995 -3.3427491 -2.3688705
-2.2974584 -3.512224 -2.3580852
-2.1976726 -3.3354795 -2.3688705
-2.306215 -3.5002177 -2.3551459
-2.1668329 -3.3596909 -2.3709109
-2.2728403 -3.5240562 -2.3561258
-2.1773772 -3.3528669 -2.3709109
-2.2810516 -3.5125113 -2.3531868
-2.1484511 -3.3775933 -2.3739715
-2.2450387 -3.5294394 -2.3502479
-2.1544118 -3.3635845 -2.3688705
-2.2598772 -3.5282428 -2.3541665
-2.1126094 -3.3940492 -2.3709109
-2.1241753 -3.3888531 -2.3719311
-2.1338925 -3.3807085 -2.3709109
-2.2327042 -3.5372553 -2.3502479
-3.7895844 -1.3471751 -2.3851933
-3.7954209 -1.3358341 -2.3862138
-3.7791889 -1.3710327 -2.3841734
-3.7686429 -1.3948112 -2.3831532
-3.756438 -1.4321915 -2.3841734
-3.7517574 -1.4154259 -2.3780522
-3.7658541 -1.4072461 -2.3841734
-3.7409508 -1.453274 -2.3800926
-3.7454979 -1.4415141 -2.3800926
-3.7314882 -1.4774009 -2.3800926
-3.7281659 -1.4904057 -2.3811128
-3.7088747 -1.5377834 -2.3811128
-3.7155449 -1.5261294 -2.3821328
-3.7155409 -1.5125039 -2.3790722
-3.6972821 -1.5610323 -2.3800926
-3.7148628 -1.554723 -2.3882539
-3.6955247 -1.5739892 -2.3821328
-3.6789706 -1.5950832 -2.3780522
-3.6502161 -1.6389419 -2.3729513
-3.6584907 -1.6288646 -2.3749917
-3.6607244 -1.6153346 -2.3729513
-3.6379919 -1.6617643 -2.3719311
-3.6403487 -1.648272 -2.3698907
-3.6256249 -1.6844972 -2.3709109
-3.6087475 -1.7043062 -2.3668301
-3.5934663 -1.740245 -2.3678503
-3.6061819 -1.7177435 -2.3688705
-3.5790658 -1.7618957 -2.3658099
-3.5802515 -1.7477535 -2.3627496
-3.5676138 -1.7849708 -2.3658099
-3.5455933 -1.8018954 -2.3586686
-3.5619884 -1.7961701 -2.3658099
-3.54002 -1.8428179 -2.3668301
-3.5415261 -1.8287008 -2.3637695
-3.544508 -1.8153789 -2.3617291
-3.5207672 -1.861004 -2.3617291
-3.5235496 -1.8483367 -2.359689
-3.508347 -1.8843137 -2.3617291
-3.4888866 -1.9022032 -2.3566284
-3.5008969 -1.8945076 -2.360709
-3.4761374 -1.9395639 -2.360709
-3.4874172 -1.9156384 -2.359689
-3.4593914 -1.9588242 -2.3576484
-3.4496531 -1.9828371 -2.359689
-3.4513826 -1.9694328 -2.3566284
-3.4293463 -2.0007391 -2.3545878
-3.4400816 -1.9925412 -2.3576484
-3.4144163 -2.0362079 -2.3576484
-3.4193156 -2.0245955 -2.3566284
-3.4011953 -2.0582159 -2.3576484
-3.4032214 -2.0448613 -2.3545878
-3.3830729 -2.0780263 -2.3545878
-3.3943512 -2.0694835 -2.3576484
-3.3714094 -2.1001503 -2.355608
-3.348192 -2.1305702 -2.3535678
-3.3548682 -2.1200414 -2.3535678
-3.3644266 -2.1113191 -2.355608
-3.335433 -2.1536624 -2.3545878
-3.3425562 -2.1425896 -2.3545878
-3.3189569 -2.1726921 -2.3525474
-3.3077235 -2.1959827 -2.3545878
-3.3121147 -2.1831081 -2.3525474
-3.2891929 -2.2144146 -2.3515272
-3.2706199 -2.2478352 -2.3535678
-3.2560358 -2.2689092 -2.3535678
-3.2631478 -2.2586689 -2.3535678
-3.2118113 -2.2690434 -2.3321438
-3.247086 -2.2787054 -2.3525474
-3.1843007 -2.2957458 -2.328063
-3.2040844 -2.2947457 -2.3372447
-3.2144804 -2.2861018 -2.3392851
-3.1888537 -2.330471 -2.3423455
-3.1933753 -2.3184202 -2.3403053
-3.1834137 -2.3581834 -2.3494871
-3.1912165 -2.3476136 -2.3494871
-3.1681187 -2.3786917 -2.3494871
-3.1714394 -2.3656414 -2.3464265
-3.1558483 -2.4006336 -2.3515272
-3.1633754 -2.3907065 -2.3515272
-3.1349528 -2.4334726 -2.3535678
-3.1209536 -2.454185 -2.3545878
-3.1046085 -2.4748292 -2.3545878
-3.0756135 -2.4834802 -2.3443861
-3.0834002 -2.4738061 -2.3443861
-3.0458832 -2.5090463 -2.3403053
-3.0577435 -2.5027344 -2.3433659
-3.0660262 -2.4925807 -2.3433659
-3.0247748 -2.5237267 -2.3362246
-3.0313632 -2.513114 -2.3352044
-3.015851 -2.5503969 -2.3423455
-3.0163891 -2.5337434 -2.3362246
-3.0049932 -2.5737722 -2.3464265
-3.0078237 -2.559859 -2.3423455
-2.9783988 -2.6018867 -2.3454061
-2.9883101 -2.5931234 -2.3464265
-2.9968925 -2.5832002 -2.3464265
-2.9607036 -2.6194098 -2.3443861
-2.9702098 -2.6112309 -2.3454061
-2.9578168 -2.6511042 -2.355608
-2.9481471 -2.6257811 -2.3413255
-2.9355419 -2.6655235 -2.3515272
-2.946456 -2.6585929 -2.3535678
-2.9110818 -2.6947484 -2.3525474
-2.917001 -2.6832604 -2.3505073
-2.9241471 -2.6729226 -2.3494871
-2.8961294 -2.7158442 -2.3545878
-2.8996131 -2.7020411 -2.3505073
-2.877284 -2.7333045 -2.3535678
-2.8821034 -2.7207098 -2.3505073
-2.859093 -2.7523274 -2.3535678
-2.8674386 -2.7411423 -2.3525474
-2.8300848 -2.777236 -2.3515272
-2.8405111 -2.7690365 -2.3525474
-2.8479607 -2.7589021 -2.3515272
-2.8059921 -2.7893898 -2.3464265
-2.8225706 -2.7873216 -2.3525474
-2.7956843 -2.8142877 -2.3525474
-2.8045113 -2.8054914 -2.3525474
-2.7750437 -2.8298259 -2.3505073
-2.786829 -2.8230569 -2.3525474
-2.752522 -2.8612928 -2.3545878
-2.7650864 -2.8563402 -2.3576484
-2.7680449 -2.8414772 -2.3525474
-2.7339876 -2.8790078 -2.3545878
-2.7406414 -2.8679178 -2.3525474
-2.7220645 -2.8855555 -2.3525474
-3.8028474 -1.3250366 -2.3882539
-3.8137255 -1.3146609 -2.3923347
-3.8180642 -1.3020067 -2.3923347
-3.7883339 -1.3608977 -2.387234
-3.7746215 -1.3835576 -2.3841734
-3.7427735 -1.4675306 -2.3841734
-3.7234657 -1.50211 -2.3811128
-3.6839633 -1.5835181 -2.3780522
-3.6689327 -1.6052058 -2.3749917
-3.6327531 -1.6731852 -2.3719311
-3.6153462 -1.6943212 -2.3678503
-3.6020167 -1.7304378 -2.3698907
-3.5762854 -1.7752846 -2.3678503
-3.5160947 -1.8734783 -2.3627496
-3.484055 -1.9288589 -2.3617291
-3.4685276 -1.9496323 -2.359689
-3.4271424 -2.014715 -2.3576484
-3.382745 -2.0916731 -2.3586686
-3.3272088 -2.163192 -2.3535678
-3.2879152 -2.2285976 -2.355608
-3.2989931 -2.2059834 -2.3535678
-3.2823191 -2.239886 -2.3566284
-3.1439452 -2.4246616 -2.3545878
-3.1529117 -2.4158192 -2.355608
-3.1309321 -2.4470332 -2.3566284
-3.1137161 -2.4661319 -2.355608
-4.1023755 -0.21356097 -2.4362025
-4.309639 -0.22435065 -2.4247034
-4.0961537 -0.20033562 -2.432122
-4.0940418 -0.2396466 -2.432122
-4.3063593 -0.25207469 -2.4237237
-4.0965319 -0.22616361 -2.4331422
-4.3071718 -0.23779273 -2.4237237
-4.0915041 -0.27964857 -2.432122
-4.2984715 -0.29379448 -2.4207847
-4.0941257 -0.26619059 -2.4331422
-4.3063822 -0.27999097 -2.4247034
-4.093225 -0.25322178 -2.432122
-4.3020196 -0.26613855 -2.4217641
-4.0845199 -0.30496672 -2.4290614
-4.2948017 -0.32066718 -2.4198048
-4.0906563 -0.2917873 -2.432122
-4.2871451 -0.30580288 -2.4149065
-4.0807505 -0.33119705 -2.4280412
-4.299593 -0.34895846 -2.4237237
-4.0817709 -0.31837615 -2.4280412
-4.2919765 -0.33477208 -2.4188251
-4.088809 -0.35844404 -2.4341624
-4.2816172 -0.37534651 -2.4149065
-4.0882611 -0.34473839 -2.4331422
-4.2811012 -0.36099944 -2.4139268
-4.0714827 -0.39634287 -2.4260008
-4.279552 -0.41659763 -2.4158862
-4.0795584 -0.384195 -2.4300816
-4.2825756 -0.40331429 -2.4168658
-4.0824585 -0.3715325 -2.4311018
-4.2820854 -0.38969997 -2.4158862
-4.0722604 -0.42298269 -2.4280412
-4.2698359 -0.44350472 -2.4119675
-4.071929 -0.40930411 -2.427021
-4.2712831 -0.42934287 -2.4119675
-4.0711541 -0.44945937 -2.4290614
-4.2668829 -0.47106805 -2.4119675
-4.0708351 -0.43648463 -2.4280412
-4.2666082 -0.45747587 -2.4109879
-4.0630407 -0.47514114 -2.4260008
-4.2672157 -0.49901783 -2.4139268
-4.0628843 -0.46147165 -2.4249806
-4.2636495 -0.48427498 -2.4109879
-4.0531726 -0.51347196 -2.4229403
-4.262229 -0.53995609 -2.4139268
-4.0564728 -0.50094771 -2.4239604
-4.2552514 -0.52549553 -2.4090283
-4.0581121 -0.48749304 -2.4239604
-4.2604332 -0.51179749 -2.4109879
-4.0531826 -0.54009014 -2.4249806
-4.2482829 -0.56608742 -2.4080489
-4.0531535 -0.52713203 -2.4239604
-4.246582 -0.55228829 -2.4060893
-4.0479069 -0.56601512 -2.4239604
-4.2428112 -0.59326845 -2.407069
-4.042944 -0.55165833 -2.4198799
-4.2482109 -0.57966691 -2.4090283
-4.0356569 -0.59089673 -2.4188595
-4.0409999 -0.57799774 -2.4208999
-4.0246997 -0.62881231 -2.4157989
-4.0318646 -0.61624205 -2.4188595
-4.0371828 -0.60408241 -2.4208999
-4.0239511 -0.65534186 -2.4178395
-4.024291 -0.64242661 -2.4168193
-4.0180583 -0.68032521 -2.4168193
-4.0167813 -0.66713578 -2.4147789
-4.0100689 -0.70636219 -2.4147789
-4.0156589 -0.69434583 -2.4168193
-4.0015426 -0.74380958 -2.4137588
-4.0071163 -0.73255199 -2.4157989
-4.0146031 -0.72017097 -2.4188595
-3.9965215 -0.77033263 -2.4137588
-4.0039921 -0.758735 -2.4168193
-3.9899154 -0.79509139 -2.4127383
-3.994082 -0.78288352 -2.4137588
-3.9845543 -0.82153606 -2.4127383
-3.9855711 -0.80797642 -2.4117184
-3.971441 -0.85865575 -2.409678
-3.9809966 -0.84691381 -2.4137588
-3.9836376 -0.83440274 -2.4137588
-3.969171 -0.88503313 -2.4117184
-3.9653628 -0.87039059 -2.4076376
-3.9668849 -0.91072482 -2.4137588
-3.9663708 -0.89749849 -2.4117184
-3.9490397 -0.93424106 -2.4066174
-3.9621675 -0.92348409 -2.4127383
-3.9465699 -0.97375435 -2.4106982
-3.9430916 -0.9590354 -2.4066174
-3.9477575 -0.94704413 -2.4076376
-3.9370391 -0.99768627 -2.4086578
-3.9434915 -0.98614824 -2.4106982
-3.9186831 -1.0207406 -2.4015164
-3.9287105 -1.0094523 -2.4055972
-3.9155157 -1.0462306 -2.4035568
-3.9237733 -1.0352409 -2.4066174
-3.906832 -1.0717204 -2.4025366
-3.9171915 -1.0598736 -2.4066174
-3.8767028 -1.1028454 -2.3902946
-3.8735244 -1.0887979 -2.3862138
-3.9051032 -1.0844492 -2.4035568
-3.8841655 -1.1328675 -2.3994761
-3.88975 -1.1197772 -2.4004962
-3.8703778 -1.1552813 -2.3953953
-3.8723388 -1.1426295 -2.3943751
-4.2457933 -0.6216647 -2.4109879
-4.2461052 -0.60733461 -2.410008
-4.2034526 -0.65674037 -2.3904145
-4.2331853 -0.64701253 -2.4060893
-4.2403698 -0.63448524 -2.4090283
-4.1939611 -0.68302977 -2.3874755
-4.2167482 -0.67314988 -2.3992317
-4.1827102 -0.70820361 -2.3835568
-4.1797543 -0.6942035 -2.3806176
-3.8611917 -1.1797487 -2.3943751
-3.8731124 -1.1700987 -2.3994761
-3.8546097 -1.2183132 -2.3974357
-3.853493 -1.2046577 -2.3943751
-3.8671188 -1.195595 -2.4004962
-3.8335667 -1.2389479 -2.3892741
-3.8505485 -1.231089 -2.3974357
-3.8287535 -1.2647566 -2.3913145
-3.8359778 -1.2537916 -2.3933551
-3.817246 -1.2883551 -2.3892741
-3.8247612 -1.2767789 -2.3913145
-4.8476362 0.79904437 -2.4677837
-4.8467226 0.8154121 -2.4686816
-4.856226 0.76828146 -2.4695792
-4.8607087 0.78552175 -2.47317
-4.8574233 0.73721701 -2.4677837
-4.8478875 0.75222486 -2.4641931
-4.8554292 0.68930048 -2.4632955
-4.8550081 0.70480776 -2.4641931
-4.8633771 0.72163087 -2.4695792
-4.8581223 0.65684319 -2.4623976
-4.8559175 0.67294985 -2.4623976
-4.8515182 0.6249367 -2.4570115
-4.8548465 0.64087582 -2.4597046
-4.8572268 0.59381056 -2.4579091
-4.8587775 0.61035901 -2.4597046
-4.8591509 0.54675871 -2.4561136
-4.8449817 0.56058264 -2.4498298
-4.8556199 0.57727796 -2.4561136
-4.8519168 0.51423901 -2.4507275
-4.8572917 0.53110069 -2.4543183
-4.8480225 0.48218709 -2.4471366
-4.8429284 0.49705166 -2.4453413
-4.8367991 0.44954768 -2.439955
-4.8495951 0.46610764 -2.4471366
-4.8431625 0.41861236 -2.4417503
-4.8506479 0.43546861 -2.446239
-4.8433938 0.37182853 -2.439955
-4.8386383 0.38675684 -2.4381597
-4.8296485 0.33941561 -2.4318757
-4.8374085 0.35608569 -2.4363644
-4.8370905 0.30856118 -2.4345689
-4.8396072 0.32483941 -2.4363644
-4.833581 0.2778559 -2.4318757
-4.8344679 0.29314807 -2.4327734
-4.8326907 0.26172882 -2.4309781
-4.5719023 -0.0023932985 -2.4309239
-4.5663629 -0.047024645 -2.4281073
-4.5682592 -0.031893931 -2.4290462
-4.5630426 -0.016725266 -2.4262292
-4.5695086 -0.075771652 -2.4299848
-4.5644269 -0.061345439 -2.4271681
-4.5653934 -0.1051986 -2.4281073
-4.56217 -0.090783916 -2.4262292
-4.5610881 -0.13457337 -2.4262292
-4.5632539 -0.12029104 -2.4271681
-4.5401769 -0.1775912 -2.4159009
-4.5530653 -0.16376999 -2.4224734
-4.5535836 -0.14867149 -2.4224734
-4.5212946 -0.20610164 -2.4065115
-4.506041 -0.19122361 -2.398061
-4.57827 0.32174936 -2.4403133
-4.5912666 0.33796695 -2.447825
-4.5626292 0.29105309 -2.4309239
-4.5898294 0.30807406 -2.4459469
-4.5802345 0.26329243 -2.4393744
-4.5864353 0.27810812 -2.4431303
-4.5861168 0.21868171 -2.4412522
-4.5871706 0.2331782 -2.4421911
-4.5898991 0.24857968 -2.4440691
-4.5926933 0.19008188 -2.4440691
-4.5868168 0.20347223 -2.4412522
-4.5832644 0.15924975 -2.4384356
-4.5827413 0.17364791 -2.4384356
-4.5700526 0.13004701 -2.4309239
-4.5731511 0.14451535 -2.4328017
-4.5781679 0.085506938 -2.4346797
-4.5743451 0.099812411 -2.4328017
-4.5828166 0.11520301 -2.4374967
-4.5733175 0.056673869 -2.4318628
-4.578414 0.071124665 -2.4346797
-4.5648232 0.011950386 -2.4271681
-4.5771246 0.026362536 -2.4337406
-4.5805435 0.041571822 -2.4356186
-4.315547 -0.21106575 -2.4276423
-5.3782768 1.5798535 -2.4957361
-5.3732867 1.5967423 -2.4957361
-5.3679628 1.6145509 -2.4957361
-5.3848543 1.5440818 -2.4941092
-5.3832135 1.5629491 -2.4957361
-5.3859158 1.5068142 -2.4900417
-5.3808889 1.5246664 -2.4900417
-5.3899894 1.4714998 -2.4876013
-5.3853397 1.4884272 -2.4876013
-5.3988118 1.4173583 -2.4851608
-5.390801 1.4333733 -2.4835341
-5.3948393 1.4536189 -2.4876013
-5.38661 1.3770354 -2.4753995
-5.3926258 1.3976411 -2.4802802
-5.3776598 1.3378104 -2.4672647
-5.3876033 1.3582716 -2.4737723
-5.3788562 1.3022764 -2.4640107
-5.3818364 1.3209091 -2.4672647
-5.3842077 1.247992 -2.4607568
-5.3838177 1.2657374 -2.4623837
-5.381144 1.2849458 -2.4631972
-5.3937254 1.2145399 -2.4615703
-5.3970079 1.2331054 -2.4648242
-5.3888044 1.1946694 -2.4575028
-5.0964212 1.1812867 -2.4762871
-5.0997243 1.198947 -2.4797099
-5.1042995 1.2188392 -2.483988
-5.0896344 1.1460657 -2.4694419
-5.1018701 1.1656725 -2.4771428
-5.1077204 1.114597 -2.4745758
-5.1092911 1.1327027 -2.4771428
-5.1110859 1.0817333 -2.4728644
-5.1041279 1.0970243 -2.4711533
-5.1143255 1.0303001 -2.4694419
-5.1126518 1.0476173 -2.4702973
-5.1146445 1.0647783 -2.4728644
-5.1047292 0.99503255 -2.4617407
-5.1104445 1.0128208 -2.4660192
-5.1146016 0.96271551 -2.4634523
-5.1044502 0.97741908 -2.4600296
-5.1135974 0.92837614 -2.4600296
-5.1106553 0.94443667 -2.4600296
-5.1080203 0.87679976 -2.4531841
-5.1177049 0.89502293 -2.4591739
-5.109529 0.9101454 -2.4566069
-5.1083713 0.84202182 -2.4506173
-5.1126819 0.86015701 -2.4540398
-5.1101322 0.80845082 -2.4489059
-5.1127768 0.82625753 -2.451473
-5.111536 0.77578402 -2.4471946
-5.1196532 0.7943936 -2.4523287
-5.0979872 0.75644249 -2.4394937
-4.8462348 0.40354201 -2.4426482
-5.1008496 0.7241416 -2.438638
-5.1057053 0.74120182 -2.4420605
-5.579392 2.0982676 -2.4898324
-5.572773 2.1157844 -2.4898324
-5.6032152 2.0660226 -2.4944572
-5.6505899 2.0220921 -2.5067909
-5.6317048 2.0364249 -2.501395
-5.6148782 2.0503097 -2.4967699
-5.6652722 1.9861692 -2.5075619
-5.6607437 2.004575 -2.5083327
-5.6797252 1.9501435 -2.5083327
-5.671484 1.9683625 -2.5075619
-5.679955 1.9093095 -2.5029368
-5.6826658 1.9301107 -2.5067909
-5.6892467 1.8518419 -2.4990826
-5.6795688 1.8695441 -2.497541
-5.6754189 1.8879592 -2.4983118
-5.6835017 1.8094649 -2.491374
-5.686573 1.8301384 -2.4952283
-5.6933064 1.772176 -2.4906032
-5.6891584 1.7916006 -2.491374
-5.6887412 1.7305405 -2.4836655
-5.6935539 1.7526535 -2.4882905
-5.6980081 1.6737735 -2.4805822
-5.69449 1.6921921 -2.481353
-5.6923828 1.7121284 -2.4828947
-5.6926045 1.652777 -2.4759572
-5.8813396 2.5646048 -2.5054345
-5.8800745 2.5860693 -2.5083444
-5.9125452 2.5109441 -2.5083444
-5.908052 2.5309739 -2.5097992
-5.9000721 2.549521 -2.5097992
-5.9217587 2.4698429 -2.5054345
-5.9208393 2.4913232 -2.5083444
-5.9341373 2.4301364 -2.5039794
-5.9299164 2.4501917 -2.5054345
-5.9427919 2.3889866 -2.5010695
-5.9365635 2.4093812 -2.501797
-5.9641218 2.3301122 -2.5003421
-5.9528956 2.34851 -2.4988871
-5.9537287 2.3716848 -2.5025244
-5.9716864 2.2899239 -2.4974322
-5.9748878 2.3127072 -2.501797
-5.9863491 2.2513137 -2.4974322
-5.9844728 2.2720921 -2.4996145
-5.9937716 2.2100291 -2.4945223
-5.993782 2.2314498 -2.4974322
-6.0006766 2.1473727 -2.4887025
-6.0022831 2.1704259 -2.4923398
-6.0006847 2.1911895 -2.4945223
-6.2029624 3.1428592 -2.5309491
-6.2025476 3.1685417 -2.5350533
-6.2356753 3.0859263 -2.5323172
-6.2259507 3.1055 -2.5323172
-6.2228789 3.1284225 -2.5350533
-6.2526255 3.0428572 -2.5309491
-6.2391257 3.0619192 -2.5295811
-6.2631454 2.9994516 -2.5275288
-6.2536912 3.0191133 -2.5275288
-6.2829008 2.9578466 -2.5275288
-6.2725377 2.9797602 -2.5275288
-6.2968359 2.8922262 -2.5220566
-6.2877178 2.9119942 -2.5220566
-6.280242 2.932529 -2.5227406
-6.3073139 2.8465347 -2.5186362
-6.3058906 2.8724296 -2.5220566
-6.318203 2.8038006 -2.5159001
-6.3093634 2.8236361 -2.5159001
-6.3379002 2.7636917 -2.5165842
-6.3240252 2.7813196 -2.5145321
-6.3554883 2.6990535 -2.513164
-6.3469772 2.7190068 -2.513164
-6.3470302 2.7426591 -2.5165842
-6.3488126 2.6714025 -2.5070076
-6.9216299 4.3503509 -2.5509994
-6.8998618 4.3669691 -2.5480208
-6.9453826 4.3771276 -2.561723
-6.9283738 4.3968782 -2.5605316
-6.9479547 4.3045578 -2.5504036
-6.9343987 4.3263626 -2.5504036
-6.9797068 4.3040252 -2.5587442
-6.9670172 4.3281546 -2.5593398
-6.955863 4.35326 -2.5605316
-6.9690909 4.2556181 -2.5480208
-6.9621916 4.2814937 -2.5504036
-7.0049806 4.2590933 -2.5581484
-6.9931941 4.2820759 -2.5587442
-7.006341 4.1865683 -2.5468292
-6.9996982 4.2124949 -2.5492122
-6.9807925 4.2327147 -2.5474248
-7.022511 4.2078815 -2.554574
-7.0150566 4.2350931 -2.556957
-7.047895 4.1614738 -2.5539782
-7.0380678 4.1855464 -2.5551696
-7.0594106 4.077395 -2.5438504
-7.056468 4.1053138 -2.5474248
-7.0510511 4.1335177 -2.5504036
-7.0706601 4.0232248 -2.5384886
-7.0679245 4.051115 -2.5420632
-7.0765076 3.9662786 -2.5313396
-7.0749526 3.9962966 -2.5355098
-7.0986304 3.918654 -2.5301483
-7.0889325 3.9440289 -2.5313396
-7.0653505 3.8122544 -2.505127
-7.0912442 3.8566427 -2.5188289
-7.0975103 3.8889956 -2.5253823
-6.5691934 3.7378891 -2.5538933
-6.5541306 3.7566242 -2.5526128
-6.593195 3.6953888 -2.5538933
-6.5759554 3.7144372 -2.5519726
-6.6185799 3.6536517 -2.5545335
-6.6047711 3.6746588 -2.5538933
-6.65835 3.592649 -2.5564542
-6.6330829 3.6074674 -2.5513322
-6.6283627 3.6319318 -2.5538933
-6.6579843 3.5371323 -2.5474908
-6.6495585 3.5609806 -2.5487714
-6.6672549 3.4870393 -2.5423691
-6.6590085 3.5108941 -2.5436497
-6.6812119 3.439573 -2.5391679
-6.6697688 3.46171 -2.5391679
-6.6914525 3.3903627 -2.5346863
-6.6852345 3.4151201 -2.536607
-6.7163153 3.3237867 -2.5321252
-6.6973639 3.3406405 -2.5289242
-6.6936059 3.3650706 -2.5314851
-7.8233299 5.92103 -2.5684762
-7.7990355 5.9434233 -2.5669568
-7.8638706 5.9668403 -2.5841777
-7.8455796 5.9940586 -2.5846841
-7.8583016 5.8680725 -2.5674632
-7.8403459 5.8952627 -2.5679696
-7.9192333 5.8899231 -2.5836713
-7.9027557 5.9184718 -2.5846841
-7.8841228 5.9432702 -2.5846841
-7.8934593 5.8174334 -2.5669568
-7.8751454 5.8422008 -2.5669568
-7.9571037 5.8386593 -2.5836713
-7.9408107 5.8673148 -2.5846841
-7.9499397 5.7400079 -2.5669568
-7.9355569 5.7697511 -2.5684762
-7.9127078 5.791225 -2.5669568
-7.9883723 5.7826166 -2.5816453
-7.9754066 5.8136349 -2.5836713
-7.9858489 5.6899433 -2.5669568
-7.966362 5.7138767 -2.5664501
-8.0276976 5.7345591 -2.5826583
-8.0064993 5.7574916 -2.5816453
-8.0123281 5.6290684 -2.5634112
-7.9999356 5.6600776 -2.5654371
-8.0643368 5.6425157 -2.5765803
-8.0528994 5.6722775 -2.5786061
-8.0435133 5.7056675 -2.5816453
-8.039587 5.5731049 -2.5608785
-8.0268002 5.6016541 -2.562398
-8.0789328 5.5774446 -2.5699956
-8.0782375 5.6124301 -2.5750606
-8.0840683 5.4877405 -2.5578396
-8.0699825 5.5152941 -2.5588524
-8.0500555 5.5409284 -2.558346
-8.1109467 5.5204735 -2.5684762
-8.1005764 5.5528102 -2.5710087
-8.0756025 5.4450102 -2.5497355
-7.3581433 5.1007223 -2.5672865
-7.3357778 5.1194115 -2.5650814
-7.3995652 5.1084304 -2.5783119
-7.3843756 5.1303625 -2.5783119
-7.3965106 5.0210028 -2.5634274
-7.3902235 5.050724 -2.5667353
-7.3686838 5.0719337 -2.5650814
-7.4396405 5.0635691 -2.5805171
-7.4180517 5.0849514 -2.5788634
-7.4263148 4.973362 -2.5628762
-7.4138422 4.9988155 -2.5639787
-7.4697137 5.0156522 -2.5799658
-7.4507332 5.036943 -2.5788634
-7.4607401 4.9250579 -2.5634274
-7.4435039 4.9510689 -2.5634274
-7.5151649 4.9402947 -2.5788634
-7.5044155 4.9670653 -2.5805171
-7.4911008 4.9940562 -2.5816195
-7.4850945 4.8738871 -2.5612226
-7.4729609 4.899487 -2.562325
-7.5363774 4.8867035 -2.5755558
-7.5306473 4.9166622 -2.5788634
-7.5145378 4.7891326 -2.5551584
-7.5099397 4.8212957 -2.5590174
-7.5003681 4.8503494 -2.5612226
-7.5621405 4.8324733 -2.5733504
-7.551693 4.8630028 -2.5755558
-7.5363421 4.7367067 -2.552402
-7.5279222 4.764473 -2.5546072
-7.5744638 4.7735882 -2.5672865
-7.5707927 4.8045697 -2.5711453
-7.5454845 4.7076187 -2.5501971
-7.5731263 4.7395687 -2.5617738
-7.5553327 4.6808548 -2.5485432
-7.5871687 4.7134147 -2.5612226
-7.5659013 4.6527529 -2.5468893
-9.1473303 8.3731756 -2.6359046
-9.118104 8.3992195 -2.6350729
-9.2120466 8.4531231 -2.6575274
-9.1796951 8.4767132 -2.655864
-9.212822 8.3244219 -2.6392312
-9.1837196 8.353611 -2.6388154
-9.2664413 8.3934603 -2.6575274
-9.242919 8.4251633 -2.6583591
-9.2722254 8.2699652 -2.6408947
-9.2432947 8.2993612 -2.6404788
-9.3494978 8.3037891 -2.6579432
-9.3262873 8.3386583 -2.6591909
-9.29422 8.365613 -2.6579432
