# .PCD v0.7 - Point Cloud Data file format
VERSION 0.7
FIELDS x y z
SIZE 4 4 4
TYPE F F F
COUNT 1 1 1
WIDTH 1530
HEIGHT 1
VIEWPOINT 0 0 0 1 0 0 0
POINTS 1530
DATA ascii
8.7846413 5.421268 0.72184002
8.8469582 5.5777011 0.73132688
7.1575308 4.6091795 0.59530175
8.5893602 5.5694795 0.71584094
8.5311909 5.650959 0.71556193
7.1571431 4.7085204 0.59906858
7.0328002 4.7902594 0.59502274
7.0176177 4.8791871 0.59767348
7.0009208 4.8332205 0.59488326
6.9720836 4.9474826 0.59781301
6.9574652 4.9024982 0.59516227
6.8843012 5.0182786 0.59572023
6.8804903 5.0505238 0.59683639
8.5170908 6.4204187 0.7458362
8.4568787 6.3311605 0.73872101
6.8486185 5.0936589 0.59683639
6.8128104 5.1712074 0.59809202
8.4771976 6.5613832 0.74960303
8.3823156 6.4459329 0.73941863
8.3393211 6.5435619 0.74123228
8.881753 7.105453 0.79536331
8.2355642 6.546176 0.73565179
6.6603045 5.401114 0.59962666
6.6653676 5.4769411 0.60325402
8.7794247 7.1654291 0.79243356
6.6290956 5.4801698 0.60144031
6.5608068 5.5679111 0.60171932
6.5362401 5.5844507 0.60116124
6.5181427 5.6422133 0.60283542
7.8560581 6.930923 0.73258251
7.7360325 6.9606671 0.72769952
6.4475322 5.764761 0.6047886
6.4135613 5.8440828 0.60674179
6.3683586 5.8786125 0.60604429
4.6442323 4.3429585 0.44462776
6.3736758 5.9227848 0.60841596
4.546011 4.3336501 0.43918678
4.5755343 4.3344407 0.44072139
4.6058664 4.3342824 0.44225603
4.5021453 4.3476691 0.43765211
4.5215387 4.3390303 0.43821016
4.472549 4.375257 0.43751261
4.4856024 4.3590126 0.4373731
4.4470339 4.4068594 0.43779165
4.4587808 4.3892879 0.43751261
4.433342 4.4488449 0.43918678
4.4374061 4.4250336 0.43821016
6.1257076 6.2684832 0.61288035
4.4070554 4.566833 0.4437907
6.1337843 6.3163218 0.61567062
4.3293095 4.5446353 0.43890774
4.3642745 4.5526166 0.44100043
4.2718639 4.5714059 0.43751261
4.2889371 4.5608711 0.43779165
4.3081536 4.5509682 0.43821016
4.2449594 4.6018305 0.43779165
4.2580371 4.5870104 0.43765211
4.2178421 4.6320958 0.43807065
4.2256331 4.6114683 0.4373731
4.2051768 4.6785288 0.43988433
4.2099586 4.6527243 0.43876824
4.2013583 4.7354355 0.44267458
4.2037497 4.7065959 0.44127944
5.8329372 6.790998 0.62599456
5.8541188 6.7701097 0.62585509
4.6721368 5.6196318 0.51103592
4.6843448 5.596457 0.51033837
4.7147565 5.5969729 0.51173347
4.6506615 5.6658392 0.51257056
4.6633549 5.6450486 0.51201248
4.6378345 5.7252111 0.5152213
4.6457162 5.6982384 0.5141052
4.6323357 5.7552943 0.5166164
17.186773 21.926987 1.9481589
4.6500082 5.8942766 0.52498722
15.476142 20.002138 1.7684661
5.5935659 7.182663 0.63659757
5.5473075 7.2687097 0.63938785
5.5652966 7.2423673 0.63869023
5.5135274 7.3193598 0.64078301
15.505315 20.449743 1.7945551
5.4689775 7.4098172 0.64399177
5.47686 7.3692217 0.64203858
15.197215 20.307152 1.7736281
5.4422851 7.471447 0.6463635
5.4456735 7.4269609 0.64399177
5.3997402 7.5145392 0.64706105
5.4105964 7.4771948 0.64538693
5.3649454 7.5687847 0.64873517
5.3840637 7.5453963 0.64817721
13.874273 19.977333 1.7008024
5.3264351 7.6154218 0.64985126
5.3549256 7.6051769 0.65040934
13.923116 20.326586 1.7228454
13.400665 19.837439 1.6740159
13.148405 19.737589 1.6583905
5.223484 7.7851052 0.65557134
13.102233 20.08346 1.6768062
13.089868 19.919853 1.6667612
5.1907187 7.845294 0.65780354
5.1466336 7.9433165 0.66184944
5.1016746 7.9864745 0.66268647
5.9260578 9.4763203 0.78155154
5.0574317 8.0310745 0.66366315
5.0486083 8.1330624 0.66938317
4.952826 8.2103901 0.67049921
4.9758749 8.1871042 0.66994113
4.910912 8.2610703 0.67203391
4.8881655 8.3416796 0.67607975
4.8232651 8.4184856 0.67845148
4.8204684 8.4752178 0.68179977
4.7307243 8.63727 0.68863595
4.690949 8.6974916 0.69100761
5.0686259 9.6175652 0.76020604
4.6468534 8.7505074 0.69282126
4.5529304 8.9163914 0.70007598
4.5754399 8.8914003 0.6992389
10.264253 20.586918 1.6085843
4.5228086 8.9965143 0.70412189
4.5456376 8.9715834 0.7032848
9.2076178 18.770197 1.4619561
10.027916 20.281034 1.5820768
4.4220076 9.1596079 0.71123695
8.5514383 17.571955 1.3665292
4.3697162 9.2067595 0.71263212
4.4079781 9.2084122 0.71388775
4.309639 9.3098364 0.71737558
4.3303566 9.2738018 0.7157014
4.3586183 9.2583475 0.71556193
4.2684364 9.37924 0.72058439
8.3493061 18.186113 1.3993149
4.2281647 9.4477587 0.72379315
4.1847358 9.5150442 0.72686243
7.7648935 17.497732 1.3386267
4.1293473 9.6391363 0.73328
4.1390305 9.5784988 0.7296527
7.7044735 17.676874 1.3483927
4.080173 9.6968622 0.73565179
7.5328774 17.746342 1.3481135
4.0403204 9.7783289 0.73983717
8.3070955 19.927097 1.5096695
3.9990633 9.8534346 0.743604
4.0201678 9.8168211 0.74179035
8.7218285 22.107712 1.6618782
3.9432185 9.9038372 0.74541771
3.9685955 9.8721952 0.74402255
6.6689496 17.229237 1.2918899
3.8976185 9.9711571 0.74862647
3.840344 10.115092 0.75657874
3.8638625 10.076222 0.75462556
3.7892482 10.172676 0.75909001
7.5461574 20.065605 1.4990667
3.7228711 10.301165 0.76592606
3.7522185 10.275645 0.7649495
3.7706752 10.226369 0.76215923
3.6907175 10.416503 0.77276218
3.6992319 10.33723 0.76773977
3.629266 10.457082 0.77401787
3.6515415 10.415504 0.77178562
3.5822041 10.540751 0.77848226
5.9056363 17.19998 1.2716606
3.5076814 10.656139 0.78448129
5.758523 17.310776 1.2757063
5.789824 17.214052 1.2699864
3.4693763 10.77352 0.79145694
5.6639132 17.400721 1.2796128
3.3475485 10.874636 0.79564232
5.5070186 17.681005 1.2949592
3.2725778 11.005713 0.80289698
6.9010334 22.944132 1.675411
3.3267334 10.928999 0.79885113
3.2275882 11.116667 0.80945408
3.2503664 11.05805 0.80596632
5.6851125 20.050718 1.4573522
3.2019997 11.159355 0.81182581
3.12292 11.291492 0.81922001
5.6121407 20.046406 1.4556781
3.0446758 11.434698 0.82745129
7.3256664 27.168995 1.9676907
3.1006939 11.357604 0.82326591
2.9857965 11.512059 0.83163673
3.0092776 11.45438 0.82814884
5.2806525 20.914989 1.5084139
2.9550245 11.55089 0.83372939
2.8758905 11.708539 0.84307671
7.6197944 30.58412 2.2040255
2.7962916 11.875431 0.8531217
2.8173647 11.798668 0.84823877
2.8437934 11.736906 0.84447187
2.7248869 11.916578 0.85479581
5.8581347 25.233669 1.8114361
2.6772571 12.066376 0.86428267
2.7002535 11.991728 0.85953927
3.8315773 17.812063 1.2740321
4.8296275 22.095093 1.5815188
5.766407 28.116695 2.0070333
2.5575254 12.263567 0.87600178
4.3250756 20.417978 1.4594449
2.457731 12.389741 0.88325649
4.7493405 23.532913 1.6787593
3.9713933 20.701025 1.4739543
4.03757 20.694319 1.4743729
2.3363643 12.618189 0.89734727
3.9149189 20.778782 1.4785582
3.9346869 22.452175 1.5939354
3.1575339 17.690538 1.2565931
2.301996 12.66709 0.90027702
1.764285 10.464401 0.74206936
1.5477066 9.5558376 0.67691684
1.7243736 10.438699 0.73983717
1.482596 9.5439453 0.67538214
1.5145477 9.5409479 0.67552167
1.3827091 9.951869 0.70258719
1.4024534 9.8664894 0.69686717
1.3220785 9.9882803 0.70454037
1.8269528 13.459405 0.94980413
1.2597924 10.000349 0.70481938
1.2912012 9.9963417 0.70481938
1.1889513 9.9708443 0.7021687
1.2249207 9.9906101 0.70384282
1.1188533 10.199762 0.71751505
1.019914 9.9033098 0.69616961
0.95479017 9.879734 0.69407696
0.98661429 9.8846273 0.69463497
0.89371264 9.9355268 0.69756472
0.83789533 10.436853 0.73216391
0.8719998 10.428053 0.73174542
0.89665169 10.331841 0.72518831
0.75405359 10.195189 0.71486431
0.79400617 10.272202 0.72044486
0.65381658 9.6902523 0.67914903
0.58867514 9.6524525 0.67621922
0.62157965 9.6643839 0.67719585
0.54010284 10.516426 0.73634934
0.55655032 9.652359 0.67607975
0.47598571 10.563461 0.73941863
0.45077297 10.800201 0.75588113
0.53721416 18.536934 1.2967728
0.38729662 17.33334 1.2123675
0.44436091 17.316002 1.2112514
0.35342562 22.009413 1.5392464
0.41687819 21.710976 1.518459
0.18064237 19.166346 1.3403009
0.24802984 19.203503 1.3429517
0.060650751 19.306761 1.3500668
-0.11002594 16.589127 1.1600502
-0.05486495 16.543512 1.1568414
-0.0045230864 25.918711 1.8124126
-0.21678248 16.783613 1.1737224
-0.16324992 16.702417 1.1680025
-0.32887295 16.973362 1.1871157
-0.27082688 16.864639 1.1794425
-0.68015558 26.324911 1.8414314
-0.38692683 17.049967 1.1925566
-0.90411311 25.507656 1.7847891
-0.82234555 25.598255 1.7909278
-0.76302272 26.328629 1.8418499
-1.0855261 25.899965 1.8126918
-1.0108824 26.076691 1.8248293
-1.2719697 26.384855 1.8471514
-1.1779417 26.141575 1.8298517
-1.3995038 25.511253 1.7866029
-1.3511484 26.219101 1.8358508
-1.1809242 18.361135 1.2865883
-1.5719495 25.701097 1.800554
-1.4828854 25.562502 1.7905092
-1.8621943 26.235769 1.8391992
-1.7695204 26.158197 1.8333397
-1.3776796 17.823183 1.250036
-1.9410744 26.182037 1.8358508
-1.9314102 23.04874 1.6173736
-1.4459208 17.93187 1.2579882
-2.1884034 23.412527 1.6442995
-2.1101789 23.367622 1.6406722
-2.0154476 23.129662 1.6235121
-1.4119413 14.120934 0.99235559
-2.2636793 23.42341 1.6455553
-1.512195 14.196828 0.99835461
-1.4624559 14.151896 0.99486685
-1.6098946 14.240295 1.0021216
-1.5604838 14.225723 1.0007263
-1.7948929 14.618258 1.0298846
-1.725033 14.42374 1.0157938
-1.9046123 14.72508 1.0382553
-2.8442574 22.577984 1.5912846
-2.7101152 19.939531 1.4071276
-3.0067785 22.685728 1.6002135
-2.0158291 14.146203 0.9991917
-1.9829242 14.253592 1.0063069
-2.1563263 14.15776 1.001424
-2.1078992 14.154966 1.0007263
-2.0576692 14.122032 0.99793613
-2.2502141 14.159303 1.00254
-2.1974182 14.12923 0.99988931
-2.3467333 14.473178 1.0252807
-2.4750762 14.38903 1.0209558
-2.4255457 14.371159 1.019142
-2.6223361 14.677171 1.0425802
-2.5420806 14.49079 1.0287685
-2.7202053 14.423898 1.0263968
-3.7106519 18.983515 1.352578
-3.6680009 19.101517 1.3601117
-4.7570133 23.549683 1.680015
-3.7840624 19.058523 1.3587166
-3.0636878 14.450734 1.0329539
-3.6240525 17.362501 1.2402701
-3.5714996 17.383572 1.2409676
-3.1010888 14.391735 1.029466
-4.264945 18.909668 1.3555079
-4.2033572 18.913235 1.3548102
-5.4547782 23.496231 1.6867114
-4.3292317 18.917568 1.3570424
-4.6874337 19.331242 1.390944
-4.6276116 19.349751 1.3912231
-4.5810008 19.424391 1.395548
-4.790936 19.215391 1.3848056
-4.7314696 19.248611 1.3860611
-4.9411669 19.286484 1.3921996
-3.6368122 14.383107 1.0374182
-3.8356233 14.589387 1.0548574
-5.0879397 19.603022 1.4161959
-3.9885528 14.589691 1.0576477
-3.9151301 14.500066 1.0502535
-3.8685687 14.518751 1.0506719
-4.0306401 14.56363 1.056671
-4.9220586 17.131411 1.2464086
-4.9987965 16.98443 1.2380379
-4.9747448 17.11203 1.2461296
-6.0643277 19.897591 1.4545621
-6.0034842 19.934786 1.4558176
-6.2503109 20.042768 1.4680948
-6.2002606 20.11677 1.4720011
-6.3876233 20.039219 1.4707456
-6.2976437 19.97356 1.4644674
-6.1773219 19.159634 1.4076856
-6.3854103 18.962917 1.3991753
-7.2328243 21.717348 1.6006321
-6.2790556 19.053024 1.4028027
-10.185654 29.614861 2.1899347
-6.1851239 17.622486 1.3059807
-6.1054978 17.5721 1.3008187
-6.0355744 17.254189 1.2782177
-6.2187247 17.358667 1.2893786
-6.2204533 17.546553 1.3017952
-6.2198706 17.248009 1.282124
-6.0630083 16.979984 1.2607785
-6.0365725 17.084652 1.2670566
-6.6075263 17.900856 1.3343018
-6.4231591 17.571119 1.308213
-6.2925487 17.382973 1.292727
-6.4881968 17.634392 1.3139329
-6.3907733 17.548954 1.3059807
-6.5594301 17.414146 1.3012373
-6.3593974 16.945824 1.2656615
-6.635819 17.286909 1.2948196
-6.568717 17.274103 1.2923084
-6.5562611 17.142193 1.2833796
-6.4458218 17.013453 1.2722186
-6.8522882 17.684555 1.3262101
-6.56318 16.833687 1.2634293
-6.6999002 17.354168 1.3008187
-6.9531212 17.436975 1.3126773
-6.7728796 17.150042 1.2893786
-6.8648057 17.119902 1.2897973
-6.66291 16.768702 1.2617551
-7.1769047 17.516521 1.3236989
-6.9364181 17.073784 1.2886811
-6.986536 17.102917 1.2918899
-6.966465 17.208 1.2981679
-7.2952271 17.47406 1.3241173
-7.1937795 17.393064 1.3161651
-7.1244273 17.123758 1.2969123
-7.048542 17.092566 1.2928665
-7.5172257 17.692297 1.3442072
-7.4546409 17.699276 1.3429517
-8.8847847 20.789856 1.5809608
-8.8124266 20.801132 1.5797051
-7.3179483 17.434265 1.3221642
-9.2117786 21.105007 1.6102585
-9.1240396 21.084404 1.6064916
-9.0517159 21.109039 1.606073
-9.088891 20.893044 1.5932378
-8.963954 20.784092 1.5827744
-10.790928 24.305286 1.8595681
-9.7346287 22.113142 1.6895018
-10.636244 24.024679 1.8372461
-9.5695257 21.799969 1.664808
-10.896018 24.109554 1.8500812
-10.829736 24.1875 1.8531505
-10.728071 23.815422 1.8265035
-10.67263 23.903696 1.8305494
-10.603266 23.074352 1.7757208
-10.517478 23.078503 1.7734886
-10.742784 23.249506 1.7909278
-10.420343 22.739014 1.7490739
-10.347351 22.778896 1.7494924
-11.153262 23.658993 1.8290148
-11.034189 23.609091 1.8223181
-10.903002 23.531506 1.8135288
-10.971613 23.347578 1.8039024
-10.852007 23.293406 1.7969269
-11.154284 23.280773 1.8051581
-11.116196 23.389584 1.810878
-10.975066 22.968409 1.7800457
-10.946428 23.094723 1.7871609
-10.920842 22.420841 1.7439119
-11.260064 23.30294 1.809762
-10.738693 22.105652 1.7185205
-11.091322 23.025488 1.7871609
-11.050364 22.319447 1.7415402
-10.972268 22.33794 1.7402846
-11.788705 23.685865 1.8500812
-10.873271 22.019741 1.7172649
-10.786157 22.027004 1.7150326
-12.296383 24.247995 1.901143
-12.228221 24.302544 1.9023986
-11.967618 23.982347 1.874217
-12.110121 23.95319 1.8768678
-12.037498 23.996464 1.8772862
-16.283491 31.60277 2.4859812
-16.164137 31.614695 2.4829118
-16.074379 31.277325 2.4590552
-15.972375 31.334017 2.4593341
-17.016468 32.508034 2.5657825
-16.878395 32.492279 2.5603416
-16.799507 32.189201 2.5389962
-16.675367 32.197529 2.5355084
-16.701517 31.410978 2.4876554
-16.692209 31.646181 2.5018857
-16.608343 31.07855 2.4640777
-16.495674 31.102369 2.4618454
-16.569942 31.507633 2.4893296
-17.244457 31.694349 2.5230918
-17.205477 31.860716 2.5320203
-16.808601 31.374172 2.4889109
-17.081091 31.485659 2.5048153
-16.984938 31.544436 2.505234
-17.552971 31.770931 2.5381591
-17.765923 32.409801 2.5844774
-17.368505 31.514963 2.5162556
-17.892473 31.897045 2.5574119
-17.64658 31.691639 2.536485
-17.662598 31.577591 2.5300672
-17.433523 31.399195 2.5113726
-18.001329 31.610929 2.5437398
-18.37146 32.511158 2.6112638
-17.894079 31.270123 2.5193248
-17.792263 31.332756 2.519604
-18.225719 32.332241 2.5953593
-18.178116 31.447395 2.5399728
-18.091154 31.525106 2.5416467
-18.086197 31.150171 2.5187666
-17.962334 31.161901 2.5151396
-19.1637 32.442787 2.6348417
-18.495455 31.537355 2.5565748
-18.322006 31.467714 2.5462508
-18.960562 32.175785 2.6115429
-19.63394 32.741024 2.6695802
-19.611984 32.951691 2.6814389
-19.432123 32.494453 2.6475372
-18.409136 31.004509 2.5214174
-19.530005 32.426403 2.6469793
-29.413841 39.881367 3.4652226
-29.032457 39.006832 3.4002097
-28.894655 39.091656 3.3992331
-28.727903 38.696255 3.370075
-27.010586 35.572247 3.1232765
-29.156067 38.917023 3.4003491
-29.818012 39.355045 3.4526665
-29.075562 38.640652 3.3815148
-28.16328 36.836029 3.2424204
-26.844265 35.199898 3.0955133
-28.619595 36.710579 3.2549765
-28.534674 36.839733 3.2584643
-28.37656 36.477543 3.231678
-28.236473 35.727917 3.1843829
-28.794378 36.67009 3.2602782
-28.927696 36.445366 3.253721
-28.585573 36.260643 3.2287483
-28.505972 36.394245 3.2326546
-29.547216 36.65752 3.292366
-29.500315 36.84874 3.3007367
-29.405508 36.967793 3.3031085
-29.335007 36.472343 3.2729738
-29.306055 36.684765 3.2832975
-29.543535 36.172352 3.2658584
-29.589407 36.461746 3.2835767
-29.399754 36.086239 3.2548373
-30.891781 38.161793 3.433274
-30.289114 36.600258 3.3220823
-31.075956 37.805576 3.4221132
-29.000235 34.906139 3.1733613
-30.908676 37.44191 3.3950477
-28.494379 34.73904 3.1418314
-30.355442 36.446659 3.316781
-29.387888 34.899223 3.1903822
-28.77021 34.396587 3.1356931
-33.834141 39.572731 3.6407299
-29.816643 35.108864 3.2209356
-33.584339 39.798008 3.6414275
-33.625252 39.425789 3.6234305
-33.373516 39.380554 3.6096184
-30.563314 35.283249 3.2641845
-32.166439 37.383732 3.4486206
-32.219505 37.538063 3.4592237
-30.405251 34.878754 3.2355843
-30.218035 34.517765 3.2079608
-30.313709 34.847359 3.2297249
-30.649853 34.485371 3.2262371
-17.140146 19.407503 1.8105991
-30.452316 34.118946 3.1979158
-16.952358 19.120777 1.7868818
-31.957424 35.268845 3.3280814
-31.024092 34.455753 3.2421412
-30.799959 34.423687 3.2300036
-33.146851 36.890926 3.468013
-32.239201 35.109032 3.3331039
-34.45644 37.62896 3.5677648
-31.124115 34.192963 3.2332125
-33.165646 35.665524 3.4056506
-33.103546 35.82375 3.4108126
-32.852791 35.403351 3.3773296
-32.073959 34.794762 3.3091078
-18.818792 19.976992 1.9191401
-19.526297 20.858961 1.997965
-18.624762 19.688246 1.8951439
-18.568932 19.760077 1.8961204
-32.905308 35.237251 3.3713303
-18.47271 19.229542 1.8645905
-18.338594 19.217085 1.8574754
-18.137228 18.92655 1.8330606
-18.672062 19.607592 1.8933302
-18.572302 19.091642 1.8624978
-18.573242 19.213015 1.8686365
-18.486435 19.049891 1.8562198
-18.306013 18.982925 1.8440821
-18.793756 19.064663 1.8719847
-18.791292 19.195736 1.8784024
-18.471085 18.783188 1.842129
-18.386389 18.821505 1.8398968
-18.914579 18.947617 1.8721242
-18.679323 18.829893 1.8546852
-18.666077 18.620514 1.8436636
-18.581699 18.659689 1.8414314
-17.913927 18.102505 1.7808827
-19.151527 18.813574 1.8772862
-19.037512 18.832613 1.8725429
-18.920284 18.834614 1.8668227
-18.857008 18.569584 1.8506392
-19.071623 18.905912 1.8778443
-18.606327 18.049685 1.8126918
-19.48036 19.016726 1.9036541
-19.318434 18.779799 1.8839829
-18.915253 18.510248 1.8506392
-18.58849 17.800819 1.7997171
-18.582752 17.907589 1.8046
-18.411283 17.674299 1.7846496
-19.305592 18.649706 1.8770071
-20.14855 19.046875 1.9388114
-20.049589 19.072948 1.9350446
-19.921101 18.753006 1.913141
-19.786394 18.750347 1.9061655
-18.446692 17.591118 1.7824174
-17.277306 16.021374 1.6476479
-17.261896 16.108244 1.6509962
-20.304264 19.073639 1.9480193
-20.222658 18.798624 1.9307197
-20.097931 18.800734 1.9244416
-19.147879 17.527361 1.815203
-17.465343 16.08835 1.6604831
-17.099291 15.690586 1.6228147
-17.092421 15.783481 1.6268605
-17.852865 16.131298 1.6825261
-17.553665 15.899954 1.6561582
-18.913242 17.239916 1.7895325
-22.889534 20.41534 2.1447327
-19.27813 17.309429 1.8117152
-19.089567 16.954466 1.7853472
-19.092735 17.070866 1.7909278
-20.66984 18.082333 1.9203957
-17.54907 15.449824 1.6349523
-18.175434 16.1029 1.6980121
-17.229511 15.205893 1.6069101
-17.758476 15.334118 1.6406722
-17.76293 15.435632 1.6455553
-20.792898 17.998665 1.9230465
-17.344265 15.114375 1.6087238
-17.693007 15.18081 1.6302087
-17.601891 15.038745 1.6189082
-17.595404 15.129092 1.6226751
-17.902023 15.064229 1.6360683
-18.067766 15.300904 1.6556002
-17.787798 14.899302 1.6225355
-17.723043 14.945347 1.6211405
-17.47718 14.837468 1.6031432
-18.379301 15.161498 1.6660635
-20.391613 16.929445 1.85329
-18.464705 15.433415 1.6828052
-18.17165 15.027552 1.6489035
-17.733313 14.759108 1.6133276
-18.406132 14.990286 1.6599251
-20.577822 16.866753 1.8605447
-18.200802 14.860089 1.643044
-20.227324 16.620819 1.830689
-18.453691 14.92218 1.6595066
-18.247686 14.697744 1.63844
-20.453346 16.580534 1.8411523
-18.614134 14.859461 1.6655055
-18.394192 14.526853 1.638998
-18.297508 14.549278 1.6346732
-18.26417 14.616663 1.6357893
-22.210676 17.377861 1.9720155
-22.063595 17.381046 1.9640633
-22.000074 17.1451 1.9503909
-20.663601 15.850001 1.8210624
-20.745144 16.022099 1.8329211
-19.152603 14.888433 1.6963379
-18.981993 14.596998 1.6744344
-22.049095 17.072233 1.9499724
-19.866688 15.035958 1.7422377
-20.324512 15.488732 1.7868818
-20.585775 15.619794 1.8069717
-20.525942 15.681913 1.8062742
-19.902622 14.861993 1.7369362
-19.824524 14.906329 1.7344249
-19.698204 14.75223 1.7208923
-20.145643 15.186345 1.7641412
-19.839819 14.621831 1.7234035
-19.856279 14.730442 1.7288444
-19.690243 14.448049 1.707778
-19.701595 14.557137 1.71294
-20.289118 14.649129 1.7499108
-20.340479 14.789069 1.7585607
-20.274597 14.838758 1.7568865
-20.222723 14.638808 1.7457255
-19.675882 14.342641 1.702616
-20.2134 14.402113 1.7355411
-20.134008 14.441127 1.7326113
-20.158464 14.495996 1.7362386
-20.81945 14.626723 1.7792085
-20.655193 14.613868 1.7693032
-20.507473 14.348821 1.75019
-20.023527 14.104113 1.712661
-19.944099 14.147349 1.7098707
-21.119179 14.63998 1.7969269
-20.855482 14.554394 1.7783716
-20.649763 14.255956 1.7546544
-20.58935 14.30464 1.7531197
-20.772646 14.101178 1.755631
-20.909433 14.2902 1.7709773
-21.100231 14.523485 1.7912067
-20.921988 14.239925 1.7697217
-20.920729 14.340813 1.7736281
-21.164198 14.173546 1.7811618
-20.874743 14.074886 1.7605139
-20.606895 13.836812 1.7356806
-20.662489 13.96853 1.7440513
-21.624048 14.274681 1.8118546
-21.268429 14.146759 1.7861842
-21.094584 13.867089 1.7652574
-20.882877 13.822079 1.7511666
-20.689178 13.792756 1.7387499
-21.124794 13.755319 1.7627461
-21.555328 14.132291 1.8023678
-21.457506 13.913379 1.788277
-21.485525 14.027621 1.7942761
-21.115211 13.457054 1.7508874
-21.078863 13.532391 1.751585
-21.204758 13.712726 1.7658154
-20.915506 13.365743 1.7356806
-20.914017 13.467831 1.7394474
-21.180767 13.312438 1.7493528
-21.250107 13.449336 1.7585607
-20.894424 13.16811 1.7270308
-20.858007 13.23689 1.7274494
-22.660414 14.039105 1.8640325
-21.228182 13.244237 1.7496319
-21.023825 12.964309 1.7271702
-21.087486 13.100284 1.7359596
-21.016869 13.153206 1.7337275
-22.66717 13.841521 1.8571963
-22.616985 13.751338 1.8509182
-21.05254 12.890903 1.7261937
-21.247313 12.696118 1.7307975
-23.186859 13.954105 1.8923537
-22.980089 13.933684 1.8792393
-22.725849 13.617306 1.8525923
-22.461946 13.560608 1.8347348
-22.986834 13.57272 1.8666832
-22.956083 13.652008 1.8676599
-23.006744 13.384871 1.8612422
-23.005262 13.486309 1.86473
-22.782152 12.963107 1.8329211
-19.895622 11.403553 1.6035618
-23.319635 13.070312 1.869334
-23.083342 13.038656 1.8538481
-19.94865 11.012245 1.5933774
-23.351862 12.992142 1.8686365
-46.406834 25.039757 3.6873271
-20.038481 10.898125 1.5950515
-19.876415 10.891043 1.5848671
-45.646076 24.250013 3.614362
-46.511642 24.90798 3.68942
-46.871315 24.514156 3.6987672
-45.651447 24.069258 3.6087813
-46.874325 24.1315 3.6866295
-47.390526 24.209223 3.7212288
-14.022612 6.9395447 1.0940605
-14.027524 6.9969192 1.0961533
-14.058947 7.067842 1.1003387
-14.041965 6.8912473 1.0937815
-50.91465 24.38328 3.9475191
-14.118514 6.8160372 1.0962927
-49.394699 23.253899 3.8176324
-50.855843 24.158997 3.9370553
-49.878181 22.909758 3.8381407
-49.894665 23.107426 3.8449769
-49.453041 23.091862 3.8165162
-70.851479 32.273933 5.4442139
-16.547623 7.3432646 1.2659404
-16.546324 7.404994 1.2676146
-16.508745 7.1987691 1.2593833
-16.58832 7.295578 1.2671961
-16.474249 6.9962959 1.2515707
-16.578728 7.1022267 1.261197
-31.850473 13.284172 2.4131556
-16.596663 6.9834104 1.2591044
-30.528708 12.502058 2.3068464
-73.865738 30.520704 5.5887494
-74.684738 30.023067 5.6286497
-30.630686 12.431602 2.31159
-62.008984 24.226179 4.6552677
-75.248238 29.6866 5.6565523
-74.969597 29.864353 5.6430197
-75.810516 29.344067 5.6844554
-14.545461 5.4701781 1.0866663
-14.56551 5.5300074 1.0894567
-14.524325 5.355423 1.0824809
-31.597631 11.425706 2.3495376
-31.62155 11.546817 2.354002
-30.945269 10.849 2.2930348
-31.836334 11.273839 2.3616753
-81.057838 27.831348 5.992918
-15.505461 5.0470061 1.1402394
-15.342718 5.050364 1.1294968
-15.307844 5.0922389 1.1281017
-15.630884 4.976428 1.1470754
-15.565794 5.0096178 1.1434481
-15.750324 4.9026599 1.153493
-15.69592 4.9428782 1.1507027
-15.884729 4.8322058 1.1610267
-15.813319 4.8678327 1.1569809
-16.083521 4.7244883 1.1721878
-16.011225 4.7579446 1.1680025
-15.943774 4.7954946 1.1642355
-16.205753 4.646924 1.1788845
-16.151932 4.6895127 1.1760942
-16.344938 4.572813 1.1868366
-16.285536 4.6144805 1.1836278
-16.446486 4.4899907 1.1921381
-16.403454 4.533669 1.1900455
-16.601509 4.3584194 1.2002299
-16.549171 4.4002995 1.1974396
-16.50174 4.4463305 1.1950679
-16.72209 4.2748423 1.2069265
-16.665333 4.3192601 1.2038573
-16.855833 4.1932569 1.2145997
-16.792276 4.23351 1.2109724
-16.996254 4.1149683 1.222831
-16.928991 4.1550241 1.2189246
-17.218361 3.9910007 1.2359452
-17.141644 4.0300064 1.2313412
-17.082842 4.0791564 1.2281325
-17.365719 3.9103508 1.2447345
-17.291109 3.9506633 1.2402701
-17.514074 3.821888 1.2535238
-17.431183 3.8644006 1.2485014
-14.440091 3.0561664 1.0321168
-17.582563 3.7790003 1.2575698
-10.856843 2.1871519 0.77443635
-10.896439 2.2327547 0.77778471
-10.93625 2.2767332 0.781133
-10.846871 2.1143119 0.77276218
-10.84409 2.1491518 0.77304125
-10.854417 2.0431142 0.7723437
-10.844027 2.0764544 0.77206469
-10.883088 1.97583 0.77345979
-10.872904 2.0092859 0.77318078
-11.009705 1.8898333 0.781133
-10.942788 1.9137576 0.77680808
-10.901366 1.9418285 0.77429688
-11.088706 1.8655628 0.78629494
-14.501979 2.3436129 1.0272338
-63.5564 9.8617611 4.497479
-63.305122 8.9871054 4.4711108
-63.256836 9.1830759 4.4697161
-63.092472 8.530427 4.4519978
-63.093479 8.7437124 4.4540901
-62.030769 7.9903445 4.3734517
-62.564289 7.6486721 4.4074931
-62.249565 7.8197823 4.3871241
-20.77236 2.40344 1.4622352
-62.181187 7.3926358 4.3787532
-20.536282 2.0425503 1.443122
-21.057692 2.1612463 1.4802324
-20.505337 1.9058319 1.4400526
-20.431726 1.9637481 1.4353092
-20.845062 1.8713728 1.4634908
-21.989935 1.5453976 1.5414786
-21.924997 1.6139174 1.5372931
-22.236395 1.4184742 1.5580806
-21.956861 1.4737672 1.5388279
-20.219168 1.1622884 1.4161959
-21.924097 1.3294135 1.5358981
-19.920668 0.94988543 1.3945714
-19.839876 1.008514 1.3891305
-20.143221 1.0909163 1.4106153
-20.025913 0.82883024 1.4015471
-20.045292 0.88921362 1.4030817
-19.935263 0.69266909 1.3948504
-19.990807 0.75748587 1.3988963
-19.863436 0.56524086 1.3895489
-19.89945 0.62883902 1.3921996
-19.760294 0.36906517 1.3820152
-19.788956 0.43179587 1.3841079
-19.829302 0.49846968 1.3870378
-19.676439 0.24383612 1.3760163
-19.71348 0.30624464 1.378667
-19.330477 0.11133637 1.351741
-19.21312 -0.01005768 0.89598572
-24.404182 -0.25131556 1.1381264
-24.279024 -0.16950732 1.1322569
-19.181026 -0.070305683 0.89449507
-21.317902 -0.35349372 0.99427676
-24.545109 -0.32988381 1.1447413
-21.247265 -0.48959255 0.99110907
-21.286648 -0.42358905 0.99287927
-21.213705 -0.62590319 0.98971152
-21.203585 -0.55894357 0.98915261
-21.254629 -0.83138508 0.99194759
-21.309048 -0.76646882 0.99436992
-21.309477 -0.69574034 0.99427676
-18.712212 -0.85298973 0.87353247
-21.247765 -0.90169495 0.99176127
-21.136381 -1.1003151 0.98700976
-18.777126 -0.91835594 0.87670022
-21.08296 -1.2341006 0.98486686
-21.102896 -1.1650604 0.98561221
-20.970234 -1.4332862 0.98020858
-21.018732 -1.3665892 0.9822582
-21.036879 -1.3014178 0.98291039
-18.922707 -1.4128456 0.88489884
-18.911346 -1.34895 0.88415354
-18.913189 -1.5350097 0.88489884
-18.878084 -1.4724814 0.88303554
-20.785606 -1.8221631 0.97303468
-20.829361 -1.7564144 0.97480488
-19.882309 -1.9354649 0.93157548
-20.721693 -1.9514786 0.97061235
-20.751596 -1.8885417 0.97173035
-4.8287463 -0.50155836 0.22639547
-4.7956204 -0.52944118 0.22499798
-4.8052053 -0.51522559 0.22537065
-4.7921014 -0.56039912 0.22499798
-4.7979031 -0.54495674 0.22518431
-21.003328 -2.798712 0.98812777
-20.861452 -2.7131317 0.98104709
-21.317219 -2.9807675 1.0037798
-21.136955 -2.8841302 0.99483573
-19.639032 -2.8755267 0.92561275
-21.48772 -3.0734606 1.0122579
-21.639675 -3.3809464 1.0213883
-21.664591 -3.3112803 1.0220405
-21.730209 -3.2514844 1.0246491
-21.556263 -3.5106592 1.0185001
-21.600723 -3.4482791 1.0200839
-21.464836 -3.6343601 1.0152392
-21.513594 -3.5731316 1.0170095
-21.406811 -3.7707489 1.0136554
-21.444145 -3.7078979 1.0148666
-21.295685 -3.958457 1.0101151
-21.330919 -3.8995643 1.0112331
-21.361433 -3.8319812 1.0120716
-21.214033 -4.0890212 1.0075064
-21.244442 -4.0257077 1.008345
-21.140903 -4.2128587 1.0052705
-21.173637 -4.1502633 1.0062021
-21.057707 -4.3416815 1.0026617
-21.111153 -4.2797666 1.0045251
-20.950623 -4.5296841 0.99958724
-20.981161 -4.4635143 1.0003326
-21.026367 -4.40413 1.0018233
-20.885836 -4.6570573 0.99791026
-20.920677 -4.5920544 0.99884194
-20.813324 -4.7783613 0.99586058
-20.847717 -4.7173591 0.99679226
-20.726738 -4.9034123 0.99325192
-20.77207 -4.8414598 0.99464941
-20.622465 -5.0882702 0.9905501
-20.676109 -5.0288262 0.9923203
-20.691807 -4.9638443 0.9923203
-20.562975 -5.2108698 0.98924571
-20.588934 -5.1486712 0.98971152
-20.489298 -5.3370633 0.98738241
-20.516558 -5.271574 0.98784828
-20.409035 -5.4533191 0.9851464
-20.443451 -5.3937616 0.98598486
-20.330034 -5.5769258 0.98309672
-20.372519 -5.5121875 0.98421472
-20.241982 -5.7584443 0.98141974
-20.271515 -5.6980619 0.98197877
-20.300863 -5.6375604 0.98253775
-20.155396 -5.8785834 0.97909057
-20.200754 -5.815372 0.98030174
-20.093176 -5.9976754 0.97787935
-20.11767 -5.9362168 0.97815889
-20.010082 -6.1138806 0.97573656
-20.057878 -6.059648 0.97713411
-19.912373 -6.2936349 0.9738732
-19.947302 -6.2358155 0.97461855
-19.978245 -6.1766629 0.97517759
-19.8428 -6.4128776 0.97247571
-19.879976 -6.3559823 0.97331423
-19.778212 -6.5333595 0.9713577
-19.802437 -6.4724379 0.97154403
-7.8404841 -2.6462343 0.38589713
-7.8757463 -2.6290758 0.38720149
-7.7576485 -2.7030189 0.38310212
-7.7797904 -2.6818359 0.38375428
-7.7924228 -2.6573119 0.38394064
-7.7273345 -2.7470224 0.38244995
-7.7491188 -2.7273753 0.38310212
-7.7282157 -2.8036799 0.38338163
-7.723824 -2.7746589 0.38272947
-7.7399263 -2.8646214 0.38487229
-7.726378 -2.8320427 0.38375428
-7.7533464 -2.8973153 0.38599029
-19.209055 -7.4622793 0.96101618
-19.239862 -7.4047656 0.96138883
-19.151178 -7.5824895 0.96055037
-19.170637 -7.5167513 0.96027082
-19.168514 -7.7329078 0.96390438
-21.293219 -8.8286505 1.0749592
-21.314989 -8.7549553 1.0745866
-19.203337 -7.8171988 0.96688569
-19.115499 -8.0707703 0.96763104
-19.155502 -8.0168505 0.96837634
-19.033615 -8.181427 0.96614039
-19.084536 -8.1284409 0.9673515
-24.403614 -10.676899 1.2421937
-24.493877 -10.619757 1.2449888
-18.735767 -8.4123335 0.95775539
-18.930443 -8.3532648 0.96492916
-18.597464 -8.4949608 0.95346963
-18.638271 -8.4390106 0.95412183
-18.534971 -8.6115103 0.95309699
-18.579756 -8.5575247 0.9539355
-18.471464 -8.7235336 0.95263118
-18.506311 -8.6729279 0.95309699
-18.363745 -8.8931999 0.95151317
-18.395193 -8.8371983 0.9516995
-18.435221 -8.7813034 0.95225853
-18.296967 -9.0071955 0.9510473
-18.339302 -8.9526062 0.9516995
-18.243784 -9.1278439 0.95132685
-18.266998 -9.0678225 0.9510473
-18.159355 -9.2287121 0.9499293
-18.204315 -9.1797171 0.95076787
-18.071833 -9.4076023 0.95011568
-18.101156 -9.3467054 0.95002252
-18.126715 -9.2838993 0.94974297
-17.99824 -9.5134935 0.94937032
-18.033344 -9.459691 0.94964987
-17.927708 -9.6288719 0.94899768
-17.970118 -9.5750046 0.94955665
-17.865097 -9.7403698 0.94890451
-17.907909 -9.6908512 0.94955665
-17.769047 -9.9145107 0.94890451
-17.808819 -9.8594017 0.9492771
-17.844919 -9.8022146 0.94946355
-17.701185 -10.023008 0.94862497
-17.734329 -9.9683285 0.94871819
-17.632627 -10.135115 0.94843864
-17.659172 -10.076702 0.9481591
-17.566807 -10.248775 0.94843864
-17.604109 -10.196535 0.94871819
-17.465906 -10.415899 0.94834554
-17.4951 -10.358944 0.9481591
-17.529282 -10.304943 0.94825232
-17.391439 -10.524341 0.94797277
-17.431271 -10.473763 0.94834554
-17.324663 -10.641541 0.9481591
-17.353033 -10.579875 0.94778645
-17.267635 -10.756519 0.94871819
-17.303211 -10.699199 0.94871819
-17.210779 -10.951814 0.95132685
-17.218332 -10.805227 0.94797277
-17.246859 -11.136159 0.95738262
-17.189503 -11.018528 0.95216531
-17.20998 -11.266187 0.95924604
-17.196714 -11.180482 0.95654416
-17.135202 -11.375983 0.95915282
-17.15782 -11.309202 0.9583143
-20.182196 -13.67979 1.1370084
-17.063042 -11.487514 0.95924604
-17.090742 -11.428302 0.95878017
-20.073677 -13.796259 1.1358904
-20.097864 -13.714976 1.1346792
-16.789518 -11.69947 0.95430815
-16.826191 -11.646666 0.95430815
-16.65814 -11.768452 0.95114052
-16.699938 -11.719503 0.95142001
-16.568714 -11.945341 0.95253801
-16.593164 -11.883924 0.95179266
-16.614576 -11.816096 0.95076787
-16.488005 -12.049727 0.95235163
-16.522545 -11.995521 0.95216531
-16.411451 -12.157142 0.95244485
-16.450066 -12.101467 0.95235163
-16.354967 -12.279662 0.95374918
-16.380653 -12.218663 0.95300382
-16.29339 -12.394278 0.95468086
-16.322689 -12.335797 0.95412183
-16.171476 -12.552931 0.95468086
-16.212418 -12.50328 0.95477396
-16.246859 -12.448644 0.95449454
-16.120552 -12.676517 0.95635784
-16.142353 -12.61633 0.95542616
-16.040815 -12.786886 0.95663738
-16.073074 -12.730229 0.95617151
-15.974145 -12.898718 0.95747584
-16.005236 -12.840971 0.95691687
-15.870444 -13.073279 0.95887339
-15.905251 -13.018297 0.95850062
-15.948334 -12.965481 0.95850062
-15.797194 -13.180419 0.95943236
-15.838521 -13.130729 0.95943236
-15.736889 -13.308122 0.9611094
-15.770225 -13.246866 0.96045715
-15.665098 -13.417134 0.9618547
-15.69348 -13.356199 0.96101618
-15.558795 -13.591942 0.96343851
-15.596236 -13.533724 0.9629727
-15.638002 -13.479326 0.96278638
-15.492537 -13.706642 0.96464968
-15.528022 -13.651308 0.96418393
-15.426016 -13.826405 0.96604717
-15.458934 -13.768574 0.96539503
-15.361554 -13.948562 0.96763104
-15.390468 -13.886849 0.96669936
-15.244544 -14.111666 0.96874905
-15.285861 -14.060998 0.96856272
-15.321113 -14.004818 0.96800369
-15.169129 -14.224845 0.96977389
-15.209359 -14.173034 0.96949434
-15.117511 -14.36103 0.97238255
-15.146571 -14.298385 0.9713577
-15.033448 -14.472063 0.9731279
-15.080983 -14.416741 0.97294158
-14.922352 -14.643693 0.9749912
-14.975122 -14.598311 0.97527069
-14.995084 -14.526173 0.97359371
-14.865735 -14.777779 0.97750676
-14.900442 -14.714361 0.97657502
-14.789485 -14.887899 0.97862476
-14.824881 -14.830063 0.97787935
-14.712621 -15.003062 0.97992909
-14.762289 -14.954194 0.97992909
-14.612246 -15.189675 0.98291039
-14.647384 -15.130778 0.98207188
-14.685092 -15.074666 0.98141974
-14.575596 -15.252492 0.98384207
-19.714867 -21.030956 1.3443047
-19.77125 -20.958738 1.3436525
-19.617998 -21.200352 1.3470066
-19.669523 -21.122538 1.3459816
-19.466242 -21.453217 1.3509195
-19.513023 -21.361996 1.3492424
-19.56922 -21.288826 1.3484972
-30.323622 -34.736149 2.1502912
-30.543369 -34.766781 2.1581173
-29.921621 -34.959526 2.1459124
-30.185549 -34.798035 2.1482415
-25.055258 -29.64889 1.810232
-29.718452 -34.943779 2.1392043
-24.741707 -29.664322 1.8013813
-24.906748 -29.661673 1.806226
-24.642315 -29.936083 1.8081825
-24.76173 -29.889284 1.8100458
-23.880745 -29.585167 1.7730585
-24.157492 -29.736387 1.7866608
-24.3053 -29.716427 1.7902945
-23.690441 -29.740334 1.7731518
-23.914972 -29.829424 1.7829343
-23.664577 -30.104733 1.7857293
-23.46525 -29.658916 1.7636486
-23.481915 -30.272707 1.7866608
-23.539137 -30.139563 1.7834001
-23.287157 -30.425301 1.7867541
-23.243626 -30.171576 1.7761331
-22.82445 -30.432487 1.7739902
-23.140085 -30.629997 1.7902012
-23.154699 -30.461004 1.7843317
-22.733501 -30.51045 1.7743628
-25.614944 -35.07539 2.0254476
-25.707438 -34.958069 2.0235844
-25.513733 -35.18116 2.0266588
-25.637341 -36.818699 2.0922482
-25.253756 -37.0345 2.0903847
-14.771611 -22.266777 1.2461069
-24.310085 -36.39637 2.0410995
-14.593605 -22.309875 1.2432187
-14.673005 -22.269699 1.2436845
-14.390763 -22.312986 1.2381877
-14.416179 -22.198967 1.2343677
-14.414341 -22.660875 1.2524421
-14.42727 -22.524637 1.2474111
-4.8806367 -7.8410711 0.43071041
-4.9296508 -7.864634 0.43285325
-4.8006458 -7.8247452 0.42810175
-4.8402228 -7.8308744 0.42931291
-4.7551866 -7.864131 0.42856759
-4.7757111 -7.8423281 0.42819491
-4.7104387 -7.9049716 0.42912659
-4.732513 -7.8824558 0.42875391
-13.713867 -23.524988 1.2698643
-13.174612 -22.93914 1.2336224
-13.618771 -23.540937 1.2682805
-13.058672 -23.08112 1.2366968
-13.230131 -23.204304 1.245641
-13.027023 -23.376129 1.2479701
-13.068124 -23.277599 1.2448956
-12.673721 -23.274242 1.2358584
-12.704887 -23.138798 1.2310138
-12.770587 -23.095755 1.2307342
-12.666064 -23.612211 1.2495539
-12.723084 -23.540667 1.247877
-12.637406 -23.928471 1.2619451
-12.593699 -23.655413 1.2497402
-12.337932 -23.731285 1.2473179
-12.331765 -23.538445 1.2392124
-12.191876 -24.010729 1.2557962
-12.225384 -23.890493 1.2515105
-12.104855 -23.46277 1.2312001
-12.162477 -24.340946 1.2689327
-12.213727 -24.252655 1.266324
-12.085252 -24.58213 1.2774109
-12.173797 -24.55624 1.2781562
-11.927993 -24.663256 1.2775972
-11.955417 -24.512238 1.2718209
-20.810455 -43.747883 2.2592032
-11.867736 -24.736635 1.2794605
-19.552078 -42.14061 2.166409
-7.8144617 -17.131422 0.87809765
-7.8966269 -17.168503 0.88126534
-7.5038815 -16.728123 0.85499227
-7.610743 -16.824602 0.86114126
-7.3880191 -16.910507 0.86058229
-7.5530829 -17.141336 0.87353247
-7.4467459 -16.749264 0.85480595
-7.2871408 -16.969444 0.86123449
-7.3213573 -16.90247 0.85899848
-7.1480484 -16.954809 0.85806674
-7.1848569 -16.893661 0.85611027
-6.9520535 -16.79203 0.84753889
-7.0053892 -16.763355 0.84725946
-6.7823319 -16.837606 0.84651411
-7.0375566 -17.314077 0.87157601
-6.895472 -16.804546 0.84707308
-6.8798475 -17.40313 0.87269402
-6.3677964 -16.417164 0.82117271
-6.4338622 -16.425722 0.82266343
-6.5266342 -17.154427 0.85592395
-6.6121497 -17.207285 0.85965061
-6.367023 -17.056593 0.84902966
-6.3620949 -16.88134 0.84129679
-6.1591892 -17.005301 0.84343958
-6.2805195 -17.171619 0.8526631
-5.8875418 -16.58909 0.82089329
-5.9931026 -16.710518 0.82788074
-5.7396188 -16.509768 0.81511688
-5.9827609 -17.036413 0.84204209
-5.8288403 -17.290096 0.85089296
-5.8857045 -17.279263 0.85126561
-5.9237089 -17.213461 0.84893644
-5.6420922 -17.11018 0.84017879
-5.7348194 -17.199406 0.84548932
-5.5712948 -17.259365 0.84576875
-5.6601934 -17.348141 0.85098618
-5.4957752 -17.419779 0.85182464
-5.5304303 -17.329136 0.8482843
-5.3138671 -17.413475 0.84902966
-5.3638301 -17.381424 0.8482843
-5.2843533 -17.524727 0.85359484
-5.4967003 -18.882864 0.91713464
-5.5650263 -18.896166 0.9186253
-5.3227811 -18.735397 0.90828377
-5.3788519 -18.708982 0.9078179
-5.2182212 -18.829062 0.91117191
-5.2692552 -18.78372 0.90977442
-14.098083 -52.836037 2.5501635
-14.219704 -52.627544 2.5422442
-5.1794758 -18.93298 0.91536444
-13.838262 -53.278366 2.5670266
-13.972139 -53.069901 2.5592005
-9.0814085 -41.442543 1.9784914
-8.432744 -41.00845 1.9524047
-8.6517782 -42.753986 2.0342054
-8.0898266 -42.089012 1.9987087
-8.2155008 -42.03006 1.9971248
-7.9122467 -42.649132 2.0228391
-8.0217323 -42.494499 2.01669
-2.5786602 -14.699313 0.69595647
-2.483922 -14.701435 0.69530427
-2.5314505 -14.701434 0.69567698
-2.3946786 -14.768859 0.69772661
-2.3012223 -14.779666 0.69754028
-2.344192 -14.750659 0.69651544
-1.9080698 -13.095341 0.61713731
-1.8059072 -12.964602 0.61042929
-1.8471905 -12.962821 0.61061561
-1.7200446 -12.96015 0.60968393
-1.7626356 -12.96854 0.61033612
-1.6325645 -12.941257 0.60828644
-1.6737256 -12.940025 0.60847276
-1.5272081 -13.119054 0.61592615
-4.0070229 -38.775146 1.8178718
-4.2476687 -43.872959 2.0555406
-4.3823824 -43.751282 2.0505095
-3.4411464 -39.49128 1.8486168
-3.5686104 -39.518078 1.850387
-3.7074628 -39.589573 1.8543001
-3.1760986 -39.389214 1.8428406
-3.2984951 -39.363117 1.8420953
-2.797596 -37.735317 1.7645804
-3.0393786 -39.231682 1.8350146
-2.5696332 -37.887691 1.7709157
-2.6934593 -37.947189 1.7740835
-2.158602 -37.210938 1.7382143
-2.3091567 -37.754341 1.7639282
-2.4370344 -37.788345 1.7658846
-1.9204255 -37.139969 1.7343012
-2.0367637 -37.127769 1.7340217
-1.7482533 -38.798428 1.8111638
-1.6043296 -33.27914 1.5537437
-1.504521 -38.810638 1.8112569
-1.6225106 -38.71191 1.8068781
-1.1056222 -38.150505 1.7798597
-1.2439417 -38.721924 1.8066918
-1.3794197 -38.91724 1.8160084
-0.85901207 -38.146866 1.7793939
-0.98694861 -38.199726 1.7820026
-0.6243912 -38.882725 1.8134929
-0.75012147 -38.714653 1.80576
-0.37355596 -38.913914 1.8147973
-0.50548846 -39.136204 1.825232
-0.12895495 -38.887524 1.8134929
-0.25092661 -38.85696 1.8120954
0.12985171 -41.332878 1.9275292
-1.696606e-06 -38.81382 1.8100458
0.45706856 -35.872105 1.6729974
0.36063612 -37.56744 1.7520028
0.69744486 -35.996117 1.67896
0.57775581 -35.97826 1.6780285
0.91120058 -35.50771 1.6564137
0.80279213 -35.650211 1.6629354
1.2475792 -35.197624 1.6424387
1.1445408 -35.434994 1.6533391
1.0258775 -35.398655 1.6514759
1.47712 -35.390697 1.6518486
1.3647765 -35.365211 1.6504509
1.7621102 -36.419773 1.7003884
1.5690225 -34.820789 1.6254822
1.9110597 -34.947754 1.6321902
1.7984809 -34.899712 1.6296748
2.2512472 -34.907471 1.6312586
2.1203523 -34.667473 1.6197058
2.0118961 -34.681938 1.6200784
2.4756341 -34.878254 1.6306064
2.3622508 -34.920158 1.6321902
1.3766164 -17.809462 0.83300489
1.4873477 -17.712345 0.82890558
1.4318142 -17.75701 0.83076894
1.6564459 -17.721411 0.83002359
1.5986071 -17.70265 0.82890558
1.5447204 -17.727489 0.82983726
1.7211698 -17.777464 0.83291179
3.7716293 -35.409 1.6606061
2.0224054 -19.5704 0.91750729
4.0556107 -35.817955 1.6810098
3.8937452 -35.496273 1.6652645
7.174902 -58.350647 2.7416213
7.0117302 -58.628036 2.7535467
4.1572595 -35.711765 1.6766309
7.7030301 -56.674755 2.6672742
8.0189619 -56.27375 2.6507835
7.8710718 -56.506435 2.6605661
8.3879118 -55.072353 2.5978646
8.28969 -55.60033 2.6215291
8.1885147 -56.130215 2.6452868
8.8763247 -55.853619 2.6373675
9.2707376 -55.939373 2.6442618
9.079421 -55.934311 2.642585
9.5898218 -55.692974 2.635411
9.4264631 -55.791775 2.6386719
10.057384 -55.177952 2.6155665
9.7865438 -55.729736 2.6386719
10.238693 -55.189297 2.6176162
13.389527 -57.583557 2.7569938
14.789292 -54.735577 2.6440756
14.49652 -51.67688 2.5029278
15.037718 -54.930958 2.6559079
14.805093 -51.495781 2.4987352
14.663439 -51.613144 2.5021822
15.740745 -51.61451 2.5164371
15.569283 -51.633099 2.5149462
15.179122 -48.674709 2.3777115
13.754711 -43.099197 2.1097636
13.812759 -42.816208 2.0980246
15.027254 -42.767483 2.113956
14.99974 -41.846607 2.073056
14.962414 -42.158993 2.0861924
15.810128 -41.950966 2.0906644
15.690478 -42.055573 2.0932729
15.835957 -42.856129 2.1306331
16.897842 -43.997429 2.1978996
16.427061 -43.176418 2.1542974
19.28837 -47.908825 2.4084566
19.128878 -47.946918 2.4073386
19.550198 -48.098152 2.4212203
17.708668 -42.396278 2.1426516
17.550938 -42.392635 2.1396701
18.911596 -43.307529 2.203769
22.419952 -48.766884 2.503021
14.708776 -32.26054 1.6534324
27.141422 -41.508053 2.3127742
30.624456 -40.847305 2.3807859
25.688824 -32.28371 1.9239888
24.028749 -29.599018 1.7779032
22.872066 -26.732475 1.6406684
22.766476 -26.788383 1.6394572
22.634991 -26.813356 1.6363828
23.871441 -27.373989 1.6937735
22.557867 -25.362919 1.5829051
24.176025 -27.364492 1.7028106
22.505051 -24.819614 1.5624082
22.477444 -24.954967 1.5662282
22.66275 -25.320211 1.5846752
22.479702 -24.472198 1.5496445
22.490255 -24.638607 1.5557002
22.439798 -24.122757 1.5364147
22.488667 -24.328102 1.544986
22.763741 -24.147846 1.5475947
22.44311 -23.97484 1.531477
22.447697 -23.359224 1.5107939
22.381145 -23.445093 1.5115392
22.721245 -23.951567 1.5395825
23.285103 -23.919523 1.5567251
23.023722 -23.808474 1.5445203
23.31291 -23.648968 1.5486196
23.313995 -23.799158 1.5536506
23.551256 -23.584158 1.5543027
23.379946 -23.560183 1.5478742
23.926203 -23.504005 1.5640852
23.822409 -23.549562 1.5621288
23.663326 -23.539749 1.5565388
12.99205 -12.432837 0.83859491
12.970893 -12.495257 0.83989924
13.241254 -12.512877 0.84958863
13.132386 -12.488329 0.84511656
13.59811 -12.60522 0.8646816
13.481018 -12.575652 0.85974383
13.355505 -12.537267 0.85424697
13.654533 -12.573591 0.86561328
43.94804 -38.432964 2.7226152
13.309101 -11.342964 0.81548953
13.330521 -11.209444 0.81222868
13.317672 -11.274242 0.81371933
13.449443 -11.094753 0.8130672
13.410316 -11.129505 0.81269455
13.364137 -11.166227 0.81213552
13.58471 -11.055751 0.81679386
13.507796 -11.067819 0.81437153
24.032562 -19.308867 1.4376578
46.06451 -36.759651 2.7483292
46.684307 -36.526295 2.7642608
47.604084 -36.028812 2.7841053
46.992088 -35.333984 2.7418075
49.296471 -35.344887 2.8287323
49.272205 -34.616241 2.8081424
49.144096 -34.77021 2.8073971
49.248402 -34.126648 2.7941673
49.216885 -34.346943 2.7988257
39.86097 -27.058985 2.2467189
49.319168 -33.946842 2.7921178
16.849012 -11.27943 0.94555044
16.842989 -11.356462 0.94732064
16.659481 -11.001597 0.93101639
16.718 -11.115826 0.93623382
16.489096 -10.736808 0.91760045
16.575352 -10.871413 0.92440164
16.21237 -10.336376 0.89663792
16.321035 -10.47792 0.90446389
16.420586 -10.614824 0.91182411
16.084261 -10.109207 0.88592374
16.236322 -10.280049 0.89617205
15.952205 -9.8830776 0.87511635
16.036335 -10.005054 0.88145167
15.836658 -9.6705332 0.8653338
15.940632 -9.8067427 0.87278712
15.647503 -9.3500061 0.85005444
15.701927 -9.4495955 0.85461962
15.786672 -9.5720482 0.86095494
15.602918 -9.2569685 0.8460483
10.273403 -5.9600759 0.553877
10.305326 -6.0243592 0.55667204
10.27076 -5.8726015 0.55173415
10.266109 -5.9128151 0.55247951
10.33813 -5.7777853 0.55229318
10.306728 -5.8051729 0.55164099
10.281488 -5.83358 0.55126834
14.834834 -8.0446033 0.78698051
14.89715 -8.1390629 0.79163885
14.706716 -7.8526549 0.77747744
14.815685 -7.9707541 0.78455818
14.622 -7.6279569 0.76909244
14.441693 -7.4156508 0.75707394
14.521236 -7.5142369 0.76247758
14.385862 -7.2699738 0.7516703
14.441777 -7.3584533 0.75586271
14.250045 -7.0861878 0.74216723
19.505585 -9.7804461 1.0175685
14.117908 -6.8522429 0.73182571
14.161501 -6.931519 0.73527288
14.227445 -7.0192871 0.73983806
14.030251 -6.6980987 0.72502452
14.061963 -6.7705884 0.7278195
13.934628 -6.54526 0.71794385
14.029557 -6.6437283 0.72390652
13.84239 -6.3931503 0.7110495
13.876569 -6.4619064 0.71384448
13.717309 -6.1763172 0.70154643
13.817898 -6.2738934 0.70769548
13.807203 -6.3214312 0.70816129
13.596136 -6.0164628 0.69334781
13.63555 -6.0852013 0.69632912
13.519281 -5.8783507 0.68747824
13.570271 -5.9512839 0.69101864
13.422842 -5.7336354 0.68067706
13.42577 -5.7876062 0.68179512
13.300172 -5.5308809 0.67173308
13.350893 -5.6012344 0.67518026
13.391116 -5.6704049 0.67816156
13.230184 -5.4018316 0.66642255
13.271304 -5.470037 0.66940391
13.129416 -5.2620273 0.65962142
13.156343 -5.3235221 0.66185743
13.060472 -5.1868343 0.65533572
12.917364 -4.937829 0.64490104
12.998759 -5.0653901 0.65058422
12.834869 -4.8115315 0.63921785
12.871158 -4.8738761 0.64182651
12.78047 -4.6997647 0.63502532
12.819956 -4.7600594 0.63772714
12.707181 -4.5798779 0.62990117
12.739664 -4.636858 0.63223034
12.595915 -4.4036241 0.62226146
12.65172 -4.4677873 0.6257087
12.687638 -4.5278478 0.62822419
12.565495 -4.3021307 0.61937332
12.59912 -4.3579116 0.62170249
12.489995 -4.1887918 0.61434227
12.537322 -4.2485275 0.61732364
12.369433 -4.0572953 0.60707527
12.422278 -4.1203051 0.61033612
12.299269 -3.9039202 0.60176474
12.30718 -3.9514029 0.60278958
12.349813 -4.0079322 0.6054914
12.22882 -3.7948096 0.59710646
12.277164 -3.8544908 0.60008776
12.19698 -3.7010758 0.59440458
12.191023 -3.7411337 0.59468406
12.14784 -3.6006606 0.59086424
12.138381 -3.63938 0.5909574
12.005128 -3.4333467 0.58229291
12.015391 -3.4771535 0.5833177
12.100275 -3.5429535 0.5879761
11.982789 -3.3434002 0.58015007
11.96069 -3.3777714 0.57959104
11.873043 -3.2302849 0.57381469
11.934101 -3.2871993 0.57726187
24.803852 -6.5812554 1.1967283
11.852262 -3.184674 0.57232404
11.749145 -2.9948192 0.56542969
11.776431 -3.0412068 0.56719989
11.743089 -3.0741706 0.56608182
11.678536 -2.8987994 0.56114399
11.700372 -2.9432724 0.56263471
11.623703 -2.8034811 0.55760366
11.664798 -2.8543577 0.56002599
11.563287 -2.7121444 0.553877
11.574146 -2.7530816 0.55480868
11.456682 -2.5692711 0.54754168
11.508487 -2.6210017 0.55042982
11.536714 -2.667702 0.55219996
11.456894 -2.5315421 0.54716897
11.412445 -2.4445329 0.54428083
11.319895 -2.3112898 0.53878397
11.249384 -2.1846211 0.53440511
11.267556 -2.2269492 0.53561628
11.287927 -2.2678456 0.53692067
11.198457 -2.0997806 0.53133059
11.211431 -2.1386948 0.53226227
11.158351 -2.0197699 0.52881509
11.179458 -2.0598831 0.53011942
11.088837 -1.9313234 0.52490211
11.125301 -1.9777116 0.52695179
11.047406 -1.8170024 0.52210706
24.128473 -4.04638 1.1409214
11.071218 -1.8924381 0.5237841
10.934887 -1.7240913 0.51623762
10.968558 -1.766697 0.51810092
10.905996 -1.649377 0.51437426
24.532141 -3.7890077 1.1575983
10.852874 -1.5716579 0.51139289
10.79644 -1.4558984 0.50803888
24.01589 -3.3153927 1.1305798
10.726112 -1.3778524 0.50431222
29.643173 -3.7027609 1.3931241
7.4980793 -0.86490506 0.35198441
