# .PCD v0.7 - Point Cloud Data file format
VERSION 0.7
FIELDS x y z
SIZE 4 4 4
TYPE F F F
COUNT 1 1 1
WIDTH 1524
HEIGHT 1
VIEWPOINT 0 0 0 1 0 0 0
POINTS 1524
DATA ascii
11.083622 -19.970715 -1.5971442
11.354984 -19.859056 -1.5996555
11.288082 -19.894867 -1.5995159
11.226505 -19.931969 -1.5996555
11.491006 -19.79912 -1.6007717
11.423766 -19.826479 -1.6000741
11.620239 -19.735125 -1.601469
11.557175 -19.769812 -1.6013297
11.759719 -19.680225 -1.6031432
11.689305 -19.710535 -1.6024458
11.957451 -19.581762 -1.604399
11.886563 -19.603874 -1.6031432
11.815656 -19.625736 -1.6018876
12.091008 -19.516008 -1.6053755
12.020998 -19.547499 -1.6046779
12.218907 -19.440899 -1.6056546
12.156486 -19.484697 -1.6059335
12.370842 -19.410852 -1.6095608
12.301262 -19.436132 -1.6084447
12.56432 -19.295702 -1.6101189
12.497014 -19.332235 -1.6097003
12.431906 -19.364685 -1.6091423
12.686409 -19.218044 -1.6102585
12.63144 -19.266148 -1.6109561
12.755864 -19.054482 -1.6034224
12.685997 -19.079508 -1.6021667
12.995184 -19.143385 -1.6179316
12.905984 -19.148321 -1.6147228
13.195391 -19.042358 -1.6200243
13.120797 -19.062355 -1.6182108
13.057512 -19.105759 -1.6182108
13.373137 -19.03511 -1.626721
13.309845 -19.072123 -1.6263025
2.9640937 -15.792748 -1.8790861
3.1555164 -15.980433 -1.9048717
3.0996177 -15.961017 -1.9013871
3.0472252 -15.958968 -1.8999933
3.262229 -15.963045 -1.9053363
3.2073185 -15.964037 -1.9041747
3.357543 -15.918908 -1.9025486
3.3095345 -15.939104 -1.9037101
3.4539337 -15.867778 -1.8990639
3.4033771 -15.888858 -1.9002255
3.5506752 -15.819947 -1.8960441
3.5031037 -15.840722 -1.8972057
3.690578 -15.734851 -1.8900043
3.63972 -15.752809 -1.8907011
3.5950649 -15.785472 -1.8932565
3.7846522 -15.679795 -1.8862876
3.7362952 -15.695473 -1.8867521
3.8697052 -15.601721 -1.8797829
3.831903 -15.647863 -1.8839645
3.9657302 -15.546841 -1.8762985
3.9177325 -15.585633 -1.8793184
4.1000109 -15.452375 -1.8695618
4.0497513 -15.469729 -1.8700264
4.0125647 -15.526609 -1.8753692
4.1918836 -15.396826 -1.8660772
4.1449261 -15.425989 -1.8679357
4.2810683 -15.343395 -1.8628249
4.2381225 -15.37592 -1.8651479
4.3724127 -15.288692 -1.8595728
4.3297887 -15.331783 -1.8630574
4.5116315 -15.221258 -1.856553
4.467701 -15.2487 -1.858179
4.4219832 -15.270292 -1.8591082
4.601757 -15.165192 -1.8533006
4.5577173 -15.2013 -1.8558559
4.6937017 -15.116189 -1.8509777
4.6526036 -15.151749 -1.853533
4.7819753 -15.065572 -1.8484223
4.7381916 -15.091892 -1.8498161
4.9178433 -14.984142 -1.8442409
4.8738117 -15.008964 -1.8454024
4.8319087 -15.049631 -1.8484223
5.0043178 -14.930345 -1.8414533
4.9625001 -14.952667 -1.8423824
5.097436 -14.879912 -1.8393625
5.05056 -14.912668 -1.841221
5.1816492 -14.821339 -1.8361104
5.1357102 -14.839421 -1.8363426
5.3154793 -14.740089 -1.8323935
5.2699084 -14.766989 -1.8335551
5.2287836 -14.798456 -1.8354135
5.4025035 -14.691484 -1.8305352
5.3576808 -14.712117 -1.8309997
5.4881959 -14.632111 -1.8275152
5.4417176 -14.655817 -1.8282121
5.5705051 -14.564823 -1.8235661
5.5324636 -14.602686 -1.8261214
5.6973476 -14.485797 -1.8203138
5.6583014 -14.520282 -1.8224045
5.6169505 -14.549105 -1.8237983
5.7873797 -14.432941 -1.8184555
5.7493429 -14.469513 -1.8207785
5.871942 -14.381581 -1.816597
5.8326941 -14.414689 -1.8184555
5.9588017 -14.322146 -1.8140417
5.9143023 -14.349174 -1.8149709
6.0825944 -14.239776 -1.8107896
6.0341167 -14.243128 -1.808931
6.0006924 -14.296029 -1.8131125
6.1769009 -14.199122 -1.8107896
6.124156 -14.213299 -1.8098602
6.2676034 -14.163663 -1.8112541
6.2230749 -14.183284 -1.8112541
6.3597326 -14.13125 -1.8121834
6.3072491 -14.126476 -1.8091635
6.4867139 -14.044973 -1.8091635
6.4458675 -14.072505 -1.8100926
6.4040904 -14.098114 -1.8107896
6.5806556 -14.009982 -1.8100926
6.5366759 -14.037131 -1.8107896
6.6786957 -13.983328 -1.8121834
6.6288886 -13.998216 -1.8112541
6.758616 -13.925004 -1.8100926
6.7174211 -13.951539 -1.8107896
6.8943915 -13.858282 -1.8100926
6.8440046 -13.872161 -1.808931
6.8014569 -13.901918 -1.8098602
6.9759536 -13.804054 -1.8086988
6.9378953 -13.836555 -1.8100926
7.071301 -13.771087 -1.8103249
7.0237937 -13.79092 -1.8098602
7.1545711 -13.714567 -1.808931
7.1123633 -13.738742 -1.8091635
7.290144 -13.647491 -1.8093957
7.2415304 -13.6711 -1.8091635
7.1957717 -13.688508 -1.8084664
7.3871121 -13.622372 -1.8121834
7.3395715 -13.636766 -1.8110218
7.4778008 -13.579604 -1.8128802
7.435102 -13.603029 -1.8128802
7.5692163 -13.537967 -1.8138095
7.5256839 -13.559943 -1.8135771
7.7145958 -13.492277 -1.8175262
7.6698108 -13.517786 -1.8175262
7.6126838 -13.515851 -1.8140417
7.8175187 -13.469666 -1.821243
7.7652464 -13.476947 -1.81892
7.9100595 -13.433976 -1.8231015
7.8648081 -13.453614 -1.8224045
8.006835 -13.399668 -1.8254244
7.9562764 -13.415894 -1.8240306
8.1371632 -13.325582 -1.8258891
8.0962896 -13.352778 -1.8261214
8.0553255 -13.379849 -1.8263537
8.2251377 -13.276134 -1.8263537
8.1789856 -13.299953 -1.8258891
8.3180981 -13.234515 -1.8279798
8.2773209 -13.267081 -1.8286767
8.4042921 -13.187015 -1.8286767
8.3596344 -13.208317 -1.8279798
8.5371122 -13.110904 -1.8296059
8.4914312 -13.135805 -1.8291414
8.449048 -13.160745 -1.8289089
8.6215096 -13.06032 -1.8300705
8.5717239 -13.074051 -1.8282121
8.7123003 -13.014277 -1.8314643
8.6702709 -13.03993 -1.8312321
8.7983913 -12.961032 -1.8319288
8.7575836 -12.993432 -1.8323935
8.938241 -12.898836 -1.8351812
8.895421 -12.92358 -1.8347166
8.850275 -12.949727 -1.8342519
9.023634 -12.844098 -1.8356458
8.9809656 -12.869125 -1.8351812
9.1121531 -12.793649 -1.8368073
9.0627947 -12.814064 -1.8354135
9.1911926 -12.734531 -1.8365749
9.1430387 -12.752045 -1.8349488
9.3246441 -12.656888 -1.8384334
9.2720652 -12.673308 -1.8363426
9.2287006 -12.697556 -1.8356458
9.3990526 -12.586858 -1.8370396
9.3548937 -12.614764 -1.8365749
9.4815474 -12.532305 -1.8377364
9.4385481 -12.557267 -1.8370396
9.5695314 -12.480274 -1.8391303
9.5278702 -12.507115 -1.8386657
9.6986818 -12.400357 -1.8409886
9.6584578 -12.429196 -1.8407563
9.6111202 -12.453294 -1.8395948
9.782259 -12.342138 -1.8416857
9.739749 -12.368127 -1.8409886
9.8629999 -12.280259 -1.8419179
9.8256102 -12.312737 -1.8421502
9.944603 -12.219392 -1.8423824
9.9036694 -12.247484 -1.8419179
9.9804258 -12.185017 -1.8419179
1.985976 -13.730776 -1.9498153
1.9239694 -13.603599 -1.9308877
1.8660361 -13.499711 -1.9153004
2.0979981 -13.872369 -1.9718046
2.0473506 -13.847902 -1.9673511
2.1872299 -13.856574 -1.9715263
2.1455028 -13.875122 -1.9731964
2.316745 -13.829487 -1.9706913
2.276176 -13.854285 -1.9731964
2.2350602 -13.860977 -1.9731964
2.4063723 -13.80211 -1.9690212
2.3650033 -13.821315 -1.9706913
2.4926288 -13.770692 -1.9667945
2.4500661 -13.796432 -1.9692996
2.5760245 -13.725109 -1.9626192
2.5358791 -13.762793 -1.9667945
2.697206 -13.659419 -1.9567739
2.6573019 -13.683379 -1.9590007
2.6191311 -13.716949 -1.9626192
2.7841709 -13.623766 -1.9542688
2.7424879 -13.650399 -1.9567739
2.8668547 -13.592439 -1.9523205
2.8229301 -13.59556 -1.9514853
2.9482515 -13.544614 -1.9481453
2.9070542 -13.571746 -1.9506503
3.0334876 -13.515631 -1.9467535
2.9935789 -13.536696 -1.9484236
3.1603749 -13.474319 -1.9450834
3.1147828 -13.480866 -1.9445268
3.0719757 -13.488654 -1.9442483
3.2375612 -13.413199 -1.9392382
3.1995351 -13.440644 -1.9417433
3.318913 -13.38106 -1.9375681
3.2824943 -13.404313 -1.9395165
3.3992651 -13.326128 -1.9328362
3.3551412 -13.347517 -1.9342279
3.5214415 -13.271828 -1.9297744
3.4834292 -13.306423 -1.9331145
3.4381411 -13.303879 -1.9311661
3.603951 -13.237345 -1.9281044
3.563118 -13.260699 -1.9297744
3.6838596 -13.202992 -1.9264343
3.6423626 -13.214501 -1.9264343
3.763051 -13.157982 -1.9233724
3.7199361 -13.172295 -1.9236507
3.8784895 -13.085176 -1.9180838
3.8434885 -13.118202 -1.9211457
3.8017063 -13.12831 -1.9208673
3.9606097 -13.052276 -1.9169705
3.9212861 -13.078618 -1.918919
4.0407019 -13.013186 -1.915022
4.000381 -13.027711 -1.9153004
4.1169934 -12.970551 -1.912517
4.0821571 -13.002318 -1.9153004
4.238626 -12.91464 -1.9102901
4.2023139 -12.941078 -1.9122386
4.1599832 -12.956828 -1.912517
4.3146515 -12.872731 -1.9080634
4.2795582 -12.894874 -1.9094551
4.3967228 -12.834463 -1.9066716
4.356976 -12.86474 -1.9088984
4.4720473 -12.791628 -1.9044449
4.4337821 -12.81123 -1.9052799
4.5881209 -12.723088 -1.9008265
4.5498986 -12.749426 -1.9024965
4.5065227 -12.75432 -1.9011047
4.6638703 -12.682857 -1.8991563
4.6280684 -12.708611 -1.9008265
4.7394156 -12.635784 -1.8966511
4.6995554 -12.657001 -1.8974862
4.8173757 -12.595667 -1.8952595
4.7812905 -12.619999 -1.8966511
4.932972 -12.542333 -1.8941461
4.8921061 -12.554078 -1.8935894
4.8590627 -12.586012 -1.8960944
5.010149 -12.494634 -1.8919193
4.9701395 -12.508472 -1.891641
5.0855608 -12.455574 -1.8908058
5.0456638 -12.469654 -1.8905275
5.1672974 -12.419744 -1.8905275
5.1291022 -12.444136 -1.891641
5.2778959 -12.355921 -1.8883008
5.2443008 -12.37882 -1.8894141
5.2024574 -12.394318 -1.8891358
5.359726 -12.320645 -1.8883008
5.317471 -12.341097 -1.8885791
5.4338279 -12.27948 -1.8871874
5.3984065 -12.303746 -1.8883008
5.5068097 -12.236066 -1.8857956
5.4729037 -12.257776 -1.8866308
5.6203241 -12.169074 -1.8838472
5.5861907 -12.195674 -1.885239
5.545392 -12.207755 -1.8844039
5.6971083 -12.128941 -1.8832905
5.6585269 -12.151358 -1.8838472
5.7881174 -12.118705 -1.8874657
5.7368798 -12.114562 -1.8838472
5.8615522 -12.076754 -1.8866308
5.8253007 -12.098678 -1.8871874
5.974896 -12.010021 -1.885239
5.9411712 -12.042201 -1.8871874
5.8968525 -12.052941 -1.8857956
6.0511317 -11.974011 -1.8855172
6.0117097 -11.989422 -1.8849607
6.123806 -11.925877 -1.8841256
6.0887194 -11.954942 -1.8855172
6.2098532 -11.903642 -1.886909
6.1669621 -11.912539 -1.885239
6.3230996 -11.837139 -1.8860741
6.2808137 -11.857388 -1.8857956
6.2435312 -11.877061 -1.8857956
6.3992372 -11.800658 -1.8866308
6.3583775 -11.813728 -1.8855172
6.4676657 -11.74521 -1.8844039
6.4288344 -11.761993 -1.8838472
6.5375791 -11.692826 -1.8827339
6.4998512 -11.711576 -1.8824556
6.6544337 -11.638129 -1.8841256
6.6167808 -11.661856 -1.8844039
6.5742803 -11.67223 -1.8827339
6.7254748 -11.588062 -1.8830122
6.6910133 -11.612566 -1.8835689
6.7991552 -11.547282 -1.8832905
6.7608457 -11.565166 -1.8827339
6.8725662 -11.501436 -1.8830122
6.831357 -11.519052 -1.8821771
6.9847183 -11.438314 -1.8835689
6.9456687 -11.455121 -1.8827339
6.913733 -11.483671 -1.8838472
7.0563507 -11.389605 -1.8830122
7.0175052 -11.411255 -1.8827339
7.1424017 -11.363922 -1.8863524
7.1067753 -11.390904 -1.886909
7.2125978 -11.317149 -1.8860741
7.17383 -11.334732 -1.885239
7.3379931 -11.269351 -1.8899709
7.2909055 -11.278653 -1.8874657
7.2543654 -11.299836 -1.8871874
7.4195657 -11.239552 -1.8927543
7.3701024 -11.241274 -1.8891358
7.4919925 -11.191404 -1.8927543
7.4567966 -11.214886 -1.8927543
7.5641069 -11.14279 -1.8927543
7.5260081 -11.16617 -1.892476
7.672976 -11.072924 -1.893311
7.6493802 -11.113288 -1.8960944
7.6024284 -11.123878 -1.8935894
7.7488747 -11.029626 -1.8944243
7.7096524 -11.047419 -1.893311
7.8153443 -10.972903 -1.893311
7.7880626 -11.011696 -1.8955379
7.8945651 -10.938035 -1.8958161
7.855547 -10.956345 -1.8947027
8.0069666 -10.868327 -1.8972079
7.9708834 -10.894818 -1.8972079
7.9319582 -10.913397 -1.8960944
8.0829086 -10.824327 -1.8985995
8.0410719 -10.843119 -1.8972079
8.1519556 -10.774907 -1.898878
8.1192551 -10.802048 -1.8991563
8.2225714 -10.723613 -1.8991563
8.1984434 -10.761994 -1.901383
8.3336716 -10.655108 -1.9011047
8.2952957 -10.674981 -1.8999913
8.2646904 -10.708702 -1.9011047
8.4059954 -10.605726 -1.9019397
8.3787622 -10.639862 -1.9033315
8.4854708 -10.56512 -1.9044449
8.4398832 -10.576245 -1.9016614
8.5560188 -10.513175 -1.9050015
8.5229502 -10.540002 -1.9050015
8.6679268 -10.444276 -1.9075066
8.627512 -10.462287 -1.9058366
8.5915146 -10.489307 -1.9055582
8.7390165 -10.392631 -1.9083418
8.7095833 -10.427634 -1.9094551
8.8067102 -10.340534 -1.9088984
8.7716217 -10.365126 -1.9083418
8.886241 -10.298442 -1.9116819
8.8409519 -10.311273 -1.9088984
8.9912281 -10.220101 -1.9130735
8.9512558 -10.239351 -1.9114034
8.9164457 -10.264432 -1.9108468
9.0649462 -10.170696 -1.9147437
9.0272303 -10.196254 -1.9139086
9.186182 -10.173686 -1.9264343
9.1250763 -10.170063 -1.9203105
1.4223564 -12.349702 -2.0423944
1.3914598 -12.424716 -2.0540671
1.4968287 -12.279266 -2.0323429
1.4591205 -12.309642 -2.0365579
1.5656662 -12.205023 -2.0216429
1.5317239 -12.24513 -2.0274794
1.6331003 -12.126489 -2.0102944
1.5967976 -12.145256 -2.0125642
1.7464592 -12.074789 -2.0044582
1.7096215 -12.088033 -2.0057552
1.6686643 -12.071839 -2.0021884
1.8243961 -12.063259 -2.0044582
1.7869817 -12.086815 -2.0073764
1.9007213 -12.04148 -2.0028372
1.8640882 -12.055194 -2.0041339
2.0115151 -12.007461 -2.0002429
1.9766618 -12.031248 -2.0031612
1.9409564 -12.03706 -2.0031612
2.0877166 -11.974413 -1.9970007
2.0534155 -12.000365 -2.0002429
2.1646481 -11.95874 -1.9966764
2.1260142 -11.971682 -1.9976492
2.2374609 -11.921236 -1.9927856
2.2011344 -11.946057 -1.9957037
2.3435967 -11.868641 -1.9875976
2.308557 -11.887568 -1.9895431
2.2741618 -11.91027 -1.992137
2.4198902 -11.841234 -1.9856522
2.3825533 -11.858869 -1.9872735
2.4942424 -11.825795 -1.9856522
2.4586828 -11.841303 -1.9869492
2.5655203 -11.786303 -1.9817615
2.5276625 -11.800534 -1.9827341
2.6363921 -11.746382 -1.9778705
2.6028869 -11.770021 -1.9804643
2.7467744 -11.710926 -1.9762492
2.7101455 -11.729585 -1.9778705
2.6754735 -11.747663 -1.9794917
2.8190994 -11.679515 -1.9739796
2.7837651 -11.694074 -1.9749522
2.8891017 -11.648164 -1.9717098
2.8582842 -11.672019 -1.9743037
2.9667802 -11.630659 -1.9720341
2.9252009 -11.637116 -1.9713857
3.0722144 -11.578753 -1.9681432
3.0343003 -11.590787 -1.9684674
3.0018234 -11.615549 -1.9710615
3.1448481 -11.551056 -1.9668463
3.1085742 -11.569044 -1.9681432
3.2131209 -11.51586 -1.9642522
3.1779754 -11.529704 -1.9649009
3.2857902 -11.48918 -1.9632796
3.2487459 -11.50381 -1.9639281
3.3931208 -11.447648 -1.9616584
3.357141 -11.458251 -1.9616584
3.3205783 -11.466846 -1.9613341
3.4629653 -11.412278 -1.9593887
3.4251013 -11.423699 -1.9593887
3.5371745 -11.391562 -1.9597129
3.4996309 -11.396959 -1.9587402
3.6033058 -11.352182 -1.9567947
3.5664413 -11.359682 -1.9561464
3.7073166 -11.295797 -1.9532281
3.6742494 -11.314897 -1.9545251
3.6361051 -11.325139 -1.9542009
3.7719443 -11.253568 -1.9499857
3.7422688 -11.275949 -1.9519312
3.8420212 -11.215235 -1.9477161
3.8098114 -11.24914 -1.9512826
3.9091554 -11.181559 -1.9460949
3.8759441 -11.19938 -1.9470675
4.0122285 -11.12611 -1.9431767
3.9832704 -11.161657 -1.9470675
3.942925 -11.15923 -1.9444736
4.0840993 -11.106236 -1.9441494
4.0444603 -11.106032 -1.9418797
4.151577 -11.068543 -1.9422039
4.1114144 -11.073 -1.9405826
4.2194409 -11.032288 -1.9405826
4.1861606 -11.04918 -1.9412313
4.3188953 -10.981011 -1.9386373
4.2829423 -10.990849 -1.9379888
4.2540798 -11.018977 -1.9405826
4.38869 -10.944799 -1.9373404
4.3557415 -10.962201 -1.9379888
4.4536409 -10.907873 -1.9357191
4.4237928 -10.932787 -1.9376645
4.5175476 -10.858051 -1.9321524
4.4912925 -10.896693 -1.9363675
4.6289835 -10.836772 -1.9360434
4.5891104 -10.832288 -1.932801
4.5531654 -10.847445 -1.932801
4.699966 -10.804024 -1.9357191
4.6614442 -10.818552 -1.9353949
4.7629657 -10.763451 -1.9337736
4.7259555 -10.771132 -1.9324768
4.82726 -10.726114 -1.9324768
4.799437 -10.749399 -1.9340979
4.9310341 -10.67663 -1.9321524
4.8991127 -10.695657 -1.932801
4.8703842 -10.721777 -1.9347465
4.9965224 -10.63742 -1.9308555
4.9620523 -10.655719 -1.9311798
5.0727658 -10.620958 -1.9337736
5.0375185 -10.637722 -1.9337736
5.1316433 -10.572898 -1.9308555
5.1001134 -10.592523 -1.931504
5.2312179 -10.515169 -1.9295585
5.1971936 -10.534228 -1.9298828
5.1630988 -10.553177 -1.9302069
5.2945127 -10.47681 -1.9285859
5.2633424 -10.496919 -1.9292343
5.3593526 -10.437134 -1.927613
5.3256092 -10.456607 -1.9279373
5.4275546 -10.404057 -1.9279373
5.3930273 -10.417551 -1.9272889
5.524332 -10.341808 -1.9263161
5.4918933 -10.368005 -1.927613
5.4556208 -10.378221 -1.9263161
5.5882607 -10.30516 -1.9259918
5.5539875 -10.31919 -1.9253434
5.6537395 -10.267129 -1.9256676
5.6195631 -10.281376 -1.9250191
5.7141452 -10.220068 -1.9237221
5.6896715 -10.251776 -1.9263161
5.817863 -10.175027 -1.9256676
5.7879848 -10.201131 -1.9269646
5.7530036 -10.214104 -1.9259918
5.8874125 -10.144073 -1.9269646
5.8496027 -10.152258 -1.9250191
5.9470267 -10.100078 -1.9256676
5.9172592 -10.122119 -1.9263161
6.0151629 -10.066546 -1.9266404
5.9757075 -10.076253 -1.9246949
6.1084309 -10.003288 -1.9256676
6.0831132 -10.032555 -1.927613
6.0474939 -10.044852 -1.9263161
6.1780972 -9.9720221 -1.9272889
6.1429276 -9.9890928 -1.9266404
6.2434149 -9.933589 -1.927613
6.2114854 -9.9559126 -1.9279373
6.3067675 -9.8958282 -1.9279373
6.27037 -9.9072552 -1.9263161
6.401031 -9.8304081 -1.9272889
6.3662543 -9.8482666 -1.9266404
6.3384809 -9.8731995 -1.927613
6.4594083 -9.7850542 -1.9263161
6.4329638 -9.8119001 -1.927613
6.5235605 -9.7447786 -1.9266404
6.496192 -9.770154 -1.927613
6.5974374 -9.7187757 -1.9298828
6.5585546 -9.7307816 -1.9279373
6.6926742 -9.6582432 -1.9305313
6.6589413 -9.6743431 -1.9295585
6.6234832 -9.6914845 -1.9285859
6.752634 -9.6115923 -1.9298828
6.7235346 -9.6343775 -1.9302069
6.8134179 -9.5661783 -1.9295585
6.7827969 -9.5903311 -1.9298828
6.8791633 -9.5311813 -1.9311798
6.8480368 -9.5511427 -1.9308555
6.970819 -9.4619026 -1.9308555
6.9382401 -9.4833736 -1.9305313
6.9060907 -9.5019302 -1.9298828
7.0353184 -9.4214334 -1.9318281
7.0087395 -9.4510527 -1.9331253
7.0991387 -9.3833389 -1.9331253
7.068439 -9.4040174 -1.932801
7.1607857 -9.3388662 -1.9334494
7.1278243 -9.3566065 -1.9324768
7.2513175 -9.2712517 -1.9337736
7.2221551 -9.2939863 -1.9337736
7.1864729 -9.311636 -1.9324768
7.312263 -9.2257795 -1.9340979
7.2820215 -9.2471552 -1.9337736
7.370451 -9.1768274 -1.9337736
7.3440471 -9.203023 -1.9344221
7.4320498 -9.132102 -1.9344221
7.4008427 -9.1523352 -1.9337736
7.5193682 -9.060339 -1.9344221
7.4858451 -9.0778275 -1.9331253
7.4469471 -9.0919142 -1.9308555
7.5815315 -9.0161247 -1.9353949
7.5477953 -9.0366716 -1.9344221
7.6367512 -8.9668083 -1.9350706
7.6059937 -8.9877424 -1.9344221
7.6970754 -8.9202948 -1.9357191
7.6715822 -8.9474268 -1.9363675
7.7901688 -8.854888 -1.9376645
7.7519212 -8.8674307 -1.9350706
7.7279072 -8.8962107 -1.9360434
7.844563 -8.8014507 -1.9370161
7.8192573 -8.8318491 -1.9379888
7.9065261 -8.7564678 -1.938313
7.8816142 -8.7842016 -1.9389616
7.9629083 -8.7052279 -1.938313
7.9379787 -8.7359686 -1.9392858
8.0366821 -8.6182861 -1.9360434
8.0109081 -8.6449394 -1.9363675
7.9888802 -8.6787176 -1.9379888
8.0838985 -8.5604458 -1.9344221
8.0583162 -8.5872393 -1.9347465
8.132309 -8.4980888 -1.9324768
8.1122408 -8.5335922 -1.9344221
8.2062483 -8.4652348 -1.9370161
8.1644421 -8.4781847 -1.9337736
8.2552233 -8.3537846 -1.9295585
8.237154 -8.3909721 -1.9318281
8.2271948 -8.4366093 -1.9360434
8.2894011 -8.2836151 -1.9253434
8.2758608 -8.3222113 -1.9282616
8.3342905 -8.2215967 -1.9233979
8.3182249 -8.2574711 -1.9256676
8.3872099 -8.1676044 -1.9233979
8.3629189 -8.1952944 -1.9237221
8.4538088 -8.0758123 -1.920804
8.4227057 -8.0968599 -1.919507
8.3986454 -8.127491 -1.9201555
8.4957333 -8.0115747 -1.9185344
8.4762487 -8.0436592 -1.9198314
8.5400686 -7.9498215 -1.9169132
8.5122194 -7.976748 -1.9165889
8.589776 -7.8931708 -1.9165889
8.5621042 -7.9202719 -1.9162647
8.6623173 -7.810544 -1.9162647
8.6348162 -7.8350663 -1.9156163
8.6116152 -7.8634849 -1.9159404
8.7124538 -7.7516103 -1.9159404
8.6867008 -7.7804585 -1.9159404
8.7667789 -7.6990924 -1.9169132
8.7382421 -7.7255068 -1.9162647
8.79107 -7.674345 -1.9172373
9.2229967 -4.5783353 -1.9400238
9.2060061 -4.6080146 -1.9396535
10.147202 0.53356814 -1.9144727
10.160606 0.50227135 -1.9166945
10.141582 0.5989694 -1.9141024
10.147439 0.56555134 -1.9148432
10.12164 0.69535333 -1.9115103
10.121929 0.66165394 -1.9111401
10.127881 0.63009292 -1.9118806
10.122685 0.7629059 -1.9126214
10.127248 0.72770953 -1.9129916
10.121755 0.82504773 -1.9133619
10.116458 0.79263306 -1.9118806
10.120131 0.89073414 -1.9141024
10.113088 0.85810745 -1.9122509
10.118939 0.98860615 -1.9155837
10.114168 0.95606899 -1.9141024
10.115164 0.9241128 -1.9137322
10.112344 1.0539312 -1.9155837
10.104051 1.0192055 -1.9133619
10.105327 1.1192124 -1.9155837
10.114655 1.0880878 -1.9166945
10.101999 1.1831368 -1.9163243
10.103514 1.1529375 -1.915954
10.101652 1.2833041 -1.9185461
10.103683 1.251318 -1.9181758
10.103876 1.2173332 -1.9174353
9.9729996 1.2351331 -1.8933655
10.100946 1.3495525 -1.9200274
10.101468 1.3155385 -1.9192867
9.9821119 1.3336753 -1.8974388
9.9745588 1.3007764 -1.8952169
9.9727478 1.268692 -1.894106
10.099807 1.4158404 -1.9215086
10.100551 1.3818096 -1.920768
9.9713449 1.3978319 -1.8970685
9.9776344 1.3667679 -1.8974388
10.088767 1.4789869 -1.9211383
10.079744 1.445334 -1.9185461
9.9698887 1.4633371 -1.8985498
9.9724913 1.4317313 -1.8981794
10.071234 1.5429162 -1.919657
10.082126 1.510386 -1.920768
9.9643822 1.5265466 -1.8992903
9.9594116 1.4937747 -1.8974388
10.054019 1.6392033 -1.9192867
10.064942 1.6085423 -1.9203976
10.06218 1.5756952 -1.9189165
9.9470463 1.6235496 -1.8989201
9.9598627 1.5935266 -1.9004014
9.9650917 1.5604918 -1.9004014
10.057088 1.7046373 -1.9218788
10.052699 1.6714238 -1.9200274
9.9634829 1.6923543 -1.9041042
9.9590559 1.6594315 -1.9022527
10.051368 1.772325 -1.9229898
10.064936 1.7403252 -1.9244709
9.9523458 1.7566608 -1.9041042
9.9426241 1.7209637 -1.9011419
10.053538 1.8705758 -1.9266927
10.043899 1.8361568 -1.9237304
10.063159 1.8070227 -1.9263225
9.9469137 1.8202158 -1.9052153
9.9390402 1.7865255 -1.9026229
10.048969 1.9369482 -1.928174
10.056936 1.9057319 -1.9285443
9.9305782 1.9177184 -1.9055855
9.9291573 1.8833185 -1.9041042
9.9369574 1.8524733 -1.9044745
10.043962 2.0033348 -1.9296553
10.050206 1.9717728 -1.9296553
9.9221859 1.9808513 -1.9063261
9.9283609 1.9496671 -1.9063261
8.3373337 -4.1386881 -1.9784878
8.3340597 -4.171567 -1.9809829
8.3621273 -4.0839033 -1.978072
8.3573132 -4.1159325 -1.9801511
8.4002457 -4.0049119 -1.978072
8.3876219 -4.0312824 -1.978072
8.3801975 -4.0601716 -1.9793195
8.4230785 -3.9474511 -1.9772403
8.4064054 -3.9736896 -1.9764087
8.4501715 -3.8937941 -1.9776561
8.4354391 -3.9209702 -1.9772403
8.4673433 -3.837394 -1.9759929
8.4616871 -3.8687048 -1.9776561
8.5073671 -3.7575185 -1.9768245
8.499094 -3.7858181 -1.9776561
8.4871588 -3.8125 -1.9776561
8.5182476 -3.6985371 -1.9739138
8.5126123 -3.7261481 -1.9751612
8.547987 -3.6442628 -1.9751612
8.5364971 -3.6710985 -1.9751612
8.5616951 -3.5867031 -1.9730822
8.548583 -3.6128213 -1.9726664
8.6035881 -3.5058053 -1.9747454
8.5816755 -3.5283535 -1.9722503
8.5807695 -3.561291 -1.9747454
8.6236296 -3.4509516 -1.9743296
8.6073036 -3.4758289 -1.9730822
8.6384516 -3.3923309 -1.9726664
8.6271544 -3.4209583 -1.9726664
8.6565266 -3.3350692 -1.9718347
8.6441832 -3.3615389 -1.9714189
8.6936378 -3.2538774 -1.9730822
8.6827993 -3.2826884 -1.9730822
8.6724443 -3.3099501 -1.9730822
8.7089596 -3.195647 -1.9718347
8.692812 -3.2224696 -1.9705873
8.727026 -3.1402018 -1.9714189
8.718956 -3.1682713 -1.9718347
8.7489672 -3.0844307 -1.9718347
8.7355471 -3.1105886 -1.9710031
8.7818747 -3.0015712 -1.9726664
8.7668543 -3.0272298 -1.9714189
8.7573004 -3.0547569 -1.9714189
8.7917986 -2.9416945 -1.9705873
8.7825136 -2.9693003 -1.9705873
8.8124704 -2.8854673 -1.9710031
8.8089342 -2.9149818 -1.9722503
8.8383732 -2.8308861 -1.9726664
8.8294353 -2.8586388 -1.9726664
8.8557959 -2.7430203 -1.9705873
8.8546019 -2.7731669 -1.9722503
8.8378983 -2.8001513 -1.9705873
8.8733253 -2.6857755 -1.9705873
8.8662395 -2.7157586 -1.9710031
8.8881493 -2.6294153 -1.9701715
8.8835926 -2.6584466 -1.9710031
8.895546 -2.5692492 -1.9680923
8.8874302 -2.597183 -1.9680923
8.9160299 -2.4826918 -1.9672607
8.9081869 -2.5106902 -1.9672607
8.9115419 -2.541883 -1.9697554
8.9375401 -2.4266007 -1.968508
8.9294434 -2.4562254 -1.968508
8.9360037 -2.3643312 -1.9647657
8.9398689 -2.3954308 -1.9672607
8.9525766 -2.3086269 -1.9651815
8.9471722 -2.337235 -1.9655973
8.9747124 -2.2210166 -1.9651815
8.9733829 -2.2506285 -1.9664289
8.962079 -2.2794085 -1.9655973
8.9865885 -2.1641254 -1.9647657
8.9721432 -2.190491 -1.9631023
8.993124 -2.1026952 -1.9631023
8.9899092 -2.1334095 -1.9639339
9.0084219 -2.0450099 -1.9635181
9.0073109 -2.07619 -1.9647657
9.021903 -1.9571983 -1.9622707
9.0111952 -1.9878358 -1.961439
9.0144501 -2.0182724 -1.9635181
9.0282784 -1.8992654 -1.9610232
9.0280075 -1.9288454 -1.9622707
9.0419512 -1.8428926 -1.961439
9.0364428 -1.8697126 -1.961439
9.0578136 -1.7836401 -1.9622707
9.046093 -1.8125139 -1.9610232
9.0725946 -1.6962512 -1.9618549
9.0707636 -1.7270591 -1.9626865
9.0576096 -1.7540596 -1.9610232
9.0849981 -1.6395605 -1.9622707
9.077879 -1.6677405 -1.9618549
9.0934696 -1.5805235 -1.9618549
9.0923109 -1.6097656 -1.9626865
9.1015568 -1.5214453 -1.961439
9.094532 -1.5512896 -1.9610232
9.1118765 -1.4333997 -1.9606074
9.1111917 -1.4626386 -1.961439
9.1024303 -1.4922113 -1.9606074
9.1209431 -1.3745283 -1.9606074
9.1202021 -1.4053628 -1.961439
9.133502 -1.3161578 -1.961439
9.1252155 -1.3458672 -1.9606074
9.1396523 -1.2584776 -1.9610232
9.1375914 -1.2874575 -1.961439
9.1454916 -1.1699421 -1.9597758
9.1475887 -1.1994305 -1.9610232
9.1398983 -1.2276417 -1.9601916
9.1509142 -1.1106235 -1.95936
9.1454372 -1.1391245 -1.9589442
9.1520634 -1.050837 -1.9581125
9.1545467 -1.0802718 -1.95936
9.1606035 -0.9919247 -1.9585283
9.1592083 -1.0225141 -1.9589442
9.1658096 -0.90356106 -1.9576967
9.1629257 -0.93235183 -1.9576967
9.1597843 -0.96273208 -1.9576967
9.1713057 -0.84595311 -1.9576967
9.1726503 -0.87353212 -1.9585283
9.1806126 -0.78544205 -1.9585283
9.1838045 -0.81640148 -1.9597758
9.1775675 -0.72712547 -1.9568651
9.1830349 -0.75659651 -1.9585283
9.1822834 -0.63725662 -1.9564493
9.1859732 -0.66812831 -1.9576967
9.1779766 -0.69653946 -1.9564493
9.1841526 -0.57942724 -1.9560332
9.1822872 -0.60827714 -1.9560332
9.18575 -0.51999629 -1.9556174
9.1956921 -0.5511567 -1.9581125
9.1967325 -0.46105874 -1.9572809
9.1991453 -0.49015695 -1.9581125
9.1948042 -0.37412372 -1.9560332
9.1994476 -0.40326524 -1.9572809
9.1961823 -0.43207234 -1.9568651
9.1951284 -0.31306714 -1.9556174
9.2018604 -0.34384978 -1.9572809
9.2027817 -0.25544953 -1.9568651
9.1999779 -0.28429917 -1.9564493
9.2081509 -0.19609895 -1.9576967
9.2035389 -0.22653691 -1.9568651
9.2056971 -0.10765361 -1.9568651
9.2013998 -0.13651553 -1.9560332
9.2067947 -0.16552737 -1.9572809
9.2101126 -0.048224472 -1.9576967
9.20012 -0.078682378 -1.9556174
9.2063198 0.011249748 -1.9568651
9.2063093 -0.017674867 -1.9568651
9.2060671 0.06909506 -1.9568651
9.2003622 0.041750465 -1.9556174
9.2108192 0.15916935 -1.9581125
9.2073622 0.13017401 -1.9572809
9.2038307 0.099600077 -1.9564493
9.2056885 0.21855444 -1.9572809
9.2024508 0.18794362 -1.9564493
9.2080441 0.27650473 -1.9581125
9.206912 0.24752466 -1.9576967
9.1971464 0.36457503 -1.9564493
9.2041111 0.33589098 -1.9576967
9.2090311 0.30710593 -1.9585283
9.2063255 0.42450103 -1.9589442
9.2037048 0.39541024 -1.9581125
9.203393 0.48394004 -1.9589442
9.2009592 0.45483297 -1.9581125
9.2059345 0.54370928 -1.9601916
9.199873 0.51274025 -1.9585283
9.2002907 0.63205695 -1.9601916
9.2023363 0.60154164 -1.9601916
9.2002764 0.57238317 -1.95936
9.1997976 0.69335151 -1.9610232
9.1963091 0.66081542 -1.9597758
9.197341 0.74969661 -1.961439
9.1957493 0.72049475 -1.9606074
9.2001028 0.80975688 -1.9631023
9.1987038 0.78052092 -1.9622707
9.1977482 0.89860708 -1.96435
9.1966295 0.86933619 -1.9635181
9.1954193 0.84008569 -1.9626865
9.1995344 0.95879626 -1.9660131
9.1948795 0.92749643 -1.96435
9.1970406 1.0186154 -1.9668447
9.1982508 0.98950523 -1.9664289
9.2001743 1.077516 -1.9689238
9.1955566 1.0493283 -1.9672607
9.1989069 1.1686201 -1.9710031
9.1967087 1.1389912 -1.9697554
9.2023783 1.1087191 -1.9701715
9.1345816 1.131297 -1.9564493
9.189229 1.227741 -1.9705873
9.2010098 1.1982697 -1.9722503
9.1252413 1.2191918 -1.9568651
9.132906 1.1910169 -1.9576967
9.1288395 1.1613334 -1.9560332
9.188859 1.2881392 -1.9722503
9.1988945 1.2584581 -1.973498
9.1191149 1.2783622 -1.9572809
9.1269617 1.2502401 -1.9581125
9.1902628 1.3472685 -1.9743296
9.1983213 1.3189468 -1.9751612
9.1164751 1.3380767 -1.9585283
9.1167612 1.3088758 -1.9576967
9.1813707 1.4065888 -1.9743296
9.1898527 1.376716 -1.9751612
9.1059542 1.3950351 -1.9581125
9.1160975 1.3672892 -1.95936
9.1770992 1.4962306 -1.9764087
9.1856174 1.4680117 -1.9772403
9.1863194 1.4385393 -1.9764087
9.0996075 1.4852313 -1.9597758
9.1042299 1.4566298 -1.9597758
9.1070776 1.4261303 -1.95936
9.1733036 1.5548394 -1.9776561
9.1723537 1.5250522 -1.9764087
9.0975418 1.5452694 -1.961439
9.0984917 1.5160396 -1.9606074
9.1743488 1.6176833 -1.9801511
9.175808 1.5865865 -1.9793195
9.093153 1.6050069 -1.9626865
9.0945711 1.5741745 -1.9618549
9.1644659 1.7051536 -1.9813987
9.173625 1.6770595 -1.9822302
9.1769238 1.6478832 -1.9818144
9.0925112 1.6638663 -1.9647657
9.0861406 1.6332183 -1.9622707
9.1667099 1.7668918 -1.9843094
9.1626053 1.7362611 -1.9822302
9.0719738 1.7519112 -1.9639339
9.0873413 1.7236466 -1.9660131
9.085021 1.693653 -1.96435
9.1512728 1.8252819 -1.9834778
9.1588812 1.7969016 -1.9838936
9.0722961 1.8111804 -1.9664289
9.0741024 1.7819134 -1.9655973
9.2559004 -4.5204053 -1.9407643
9.24086 -4.551074 -1.9407643
9.2998676 -4.4338169 -1.9411347
9.2858915 -4.4630113 -1.9411347
9.2700567 -4.4913044 -1.9407643
9.3433065 -4.3787131 -1.9440972
9.3216267 -4.4063129 -1.9426159
9.392808 -4.328156 -1.9485407
9.3623629 -4.3518243 -1.9452081
9.419817 -4.2690544 -1.9485407
9.4091835 -4.3019028 -1.9492815
9.4423838 -4.1704946 -1.9448378
9.4364157 -4.2033367 -1.9463189
9.4249573 -4.2337666 -1.9466894
9.4503727 -4.1032562 -1.9411347
9.4507599 -4.136795 -1.9437268
9.4701471 -4.0374069 -1.9396535
9.4754715 -4.0749025 -1.9433565
9.5188942 -3.9876971 -1.9444675
9.5026979 -4.0160513 -1.9437268
9.5501337 -3.8915052 -1.9429862
9.543314 -3.9237309 -1.9440972
9.5320654 -3.956109 -1.9444675
9.5707464 -3.829963 -1.9422456
9.5641346 -3.8622193 -1.9433565
9.5934505 -3.7673602 -1.9418753
9.5845575 -3.800601 -1.9426159
9.628582 -3.7095699 -1.9440972
9.6077213 -3.7362385 -1.9422456
9.6545439 -3.6135275 -1.9422456
9.6388302 -3.6441329 -1.941505
9.6310072 -3.6757979 -1.9422456
9.6776772 -3.5511062 -1.9422456
9.6603193 -3.5811296 -1.9411347
9.6997986 -3.4902296 -1.9422456
9.6869392 -3.5200145 -1.9418753
9.7165737 -3.4255586 -1.9411347
9.7057638 -3.4560671 -1.9411347
9.7434301 -3.3302228 -1.9400238
9.7347775 -3.3614576 -1.940394
9.7334471 -3.3952606 -1.9422456
9.7647324 -3.2672336 -1.9400238
9.7488337 -3.2960057 -1.9389127
9.7818909 -3.2028847 -1.9392833
9.771781 -3.2335997 -1.9392833
9.7986269 -3.1384509 -1.9385425
9.7887192 -3.1692185 -1.9385425
9.8489532 -3.0506439 -1.9426159
9.841197 -3.0821579 -1.9429862
9.8065653 -3.1070583 -1.9381722
9.864687 -2.9858408 -1.9418753
9.8641262 -3.0214143 -1.9437268
9.8870211 -2.9249156 -1.9426159
9.8834324 -2.9576521 -1.9437268
9.9038153 -2.8604615 -1.9422456
9.8910065 -2.8904588 -1.941505
9.9308167 -2.7652617 -1.9422456
9.9201899 -2.7959139 -1.9418753
9.9094658 -2.8265257 -1.941505
9.9408798 -2.6990139 -1.9407643
9.939455 -2.7340496 -1.9422456
9.9657021 -2.6367741 -1.9422456
9.9516735 -2.6665428 -1.9411347
9.9744596 -2.5721428 -1.9407643
9.9644289 -2.6029692 -1.940394
9.9933996 -2.4731162 -1.9396535
9.9912987 -2.5059335 -1.9407643
9.9810305 -2.5385678 -1.940394
10.004919 -2.4093571 -1.9389127
9.9973011 -2.4407766 -1.9389127
10.024507 -2.3438444 -1.9396535
10.020504 -2.3779817 -1.940394
10.029849 -2.276885 -1.937802
10.020329 -2.3096914 -1.9374317
10.051243 -2.1805019 -1.937802
10.043571 -2.215574 -1.937802
10.038479 -2.2475452 -1.9381722
10.068592 -2.1181147 -1.9385425
10.065733 -2.1505568 -1.9392833
10.081702 -2.0548105 -1.9385425
10.073636 -2.0843163 -1.9381722
10.091251 -1.9871418 -1.937802
10.084606 -2.0205948 -1.937802
10.104065 -1.8890991 -1.9366909
10.103538 -1.9236978 -1.937802
10.097445 -1.9554297 -1.937802
10.121537 -1.8266237 -1.937802
10.113817 -1.8580575 -1.9374317
10.133122 -1.761224 -1.937802
10.129475 -1.7933922 -1.9381722
10.134593 -1.6941309 -1.9359504
10.130856 -1.7280593 -1.9363207
10.158154 -1.5979909 -1.9374317
10.149201 -1.6292726 -1.9366909
10.149562 -1.6638734 -1.937802
10.168262 -1.5323595 -1.9374317
10.157296 -1.5651722 -1.9363207
10.176001 -1.4663841 -1.9370614
10.169136 -1.4998337 -1.9366909
10.181117 -1.4018812 -1.9363207
10.176662 -1.4338593 -1.9363207
10.192157 -1.3038374 -1.9359504
10.186061 -1.3355948 -1.9355801
10.189608 -1.3686352 -1.9370614
10.196462 -1.2375189 -1.9352099
10.198374 -1.2702745 -1.9363207
10.200336 -1.1711993 -1.9344693
10.200509 -1.2036995 -1.9352099
10.201824 -1.1046697 -1.9333583
10.203965 -1.1391484 -1.9344693
10.211958 -1.0066898 -1.9333583
10.208745 -1.0387666 -1.9333583
10.209153 -1.0730252 -1.9340988
10.220037 -0.94268715 -1.9337286
10.21524 -0.97282028 -1.9333583
10.216275 -0.87404758 -1.9318771
10.211362 -0.90774703 -1.9315068
10.207849 -0.80875319 -1.9292849
10.218971 -0.84194797 -1.9318771
10.219188 -0.7092185 -1.9300256
10.206978 -0.74238968 -1.928174
10.206555 -0.77460086 -1.9285443
10.209712 -0.64412963 -1.9274335
10.213521 -0.67659086 -1.9285443
10.213658 -0.5781852 -1.9274335
10.205798 -0.61169887 -1.9263225
10.199512 -0.51133096 -1.9241006
10.213557 -0.54420775 -1.9270632
10.211734 -0.41550115 -1.9255819
10.202523 -0.44723588 -1.9241006
10.204996 -0.47947034 -1.9248414
10.194622 -0.34709698 -1.9218788
10.207163 -0.38141537 -1.9244709
10.182848 -0.28265408 -1.9192867
10.177981 -0.31452161 -1.9185461
10.184462 -0.21689069 -1.9192867
10.183686 -0.25066236 -1.9192867
10.178213 -0.11902645 -1.9178056
10.175825 -0.15097247 -1.9174353
10.17923 -0.18301062 -1.9181758
10.200389 -0.053409599 -1.9218788
10.200156 -0.087235011 -1.9218788
10.173005 0.012430998 -1.9166945
10.196579 -0.01957605 -1.9211383
10.17076 0.076335452 -1.9163243
10.174873 0.046172716 -1.9170648
10.159704 0.17556673 -1.9144727
10.179858 0.14392318 -1.9181758
10.168488 0.1100392 -1.915954
10.168182 0.24140522 -1.9163243
10.170892 0.20772231 -1.9166945
10.176288 0.30557975 -1.9181758
10.171303 0.27345198 -1.9170648
10.170921 0.40317547 -1.9178056
10.174102 0.3712894 -1.9181758
10.177183 0.33939219 -1.9185461
10.162215 0.46857685 -1.9166945
10.163637 0.43665096 -1.9166945
27.110029 23.023525 -1.6586497
19.673597 17.029795 -1.8195279
19.564377 17.049063 -1.8146449
19.543934 16.923523 -1.8078088
19.645313 17.344065 -1.8325025
19.567539 17.275402 -1.8252479
19.528725 17.132273 -1.8165982
19.623238 17.662659 -1.8461748
19.570076 17.50382 -1.8359904
19.551903 17.377302 -1.8291544
19.623766 17.893858 -1.8570569
19.634058 17.790585 -1.8527319
19.585268 17.746376 -1.8481281
19.620371 18.003984 -1.8620794
19.6866 18.185369 -1.8740774
19.742109 18.474348 -1.8906795
19.696592 18.30961 -1.8804951
19.774027 18.621075 -1.8993292
19.690907 18.78418 -1.9029566
19.6966 18.665272 -1.8975157
19.701405 18.552687 -1.8923537
19.846556 19.172302 -1.9296036
19.798742 19.006235 -1.9191401
19.629444 18.969187 -1.9088162
19.662008 18.874975 -1.9058863
19.854946 19.429842 -1.9425783
19.792887 19.247742 -1.9305801
19.638201 19.217737 -1.9213723
19.621248 19.08083 -1.9138386
19.859425 19.686867 -1.9554135
19.854939 19.552313 -1.9485774
19.605797 19.435444 -1.9304407
19.616116 19.317129 -1.9251392
19.885643 20.094995 -1.9768986
19.846561 19.922934 -1.966435
19.828556 19.780157 -1.9584829
19.629108 19.711504 -1.9452291
19.572302 19.531363 -1.9335098
19.819592 20.288641 -1.9833161
19.865784 20.201462 -1.9812233
19.655811 20.113941 -1.9665745
19.619577 19.951097 -1.9566691
19.629583 19.843147 -1.9517862
19.843281 20.577049 -1.9989415
19.682629 20.410456 -1.982758
19.647999 20.246866 -1.9728526
19.758131 20.755339 -2.0038245
19.813053 20.675295 -2.0024292
19.683847 20.677307 -1.9962908
19.690195 20.547091 -1.9900128
19.765501 20.894121 -2.0112185
19.745893 21.145281 -2.0230772
19.749384 21.016258 -2.0166597
19.700571 20.818226 -2.0042431
19.826349 21.500666 -2.0451202
19.858509 21.400253 -2.0414929
19.860556 21.826473 -2.0635359
19.958427 21.78845 -2.0661867
15.25807 13.470743 -1.8988972
15.252381 13.728498 -1.914503
15.264269 13.652631 -1.9106015
15.292471 13.677855 -1.9141314
15.274343 13.575501 -1.9065142
15.260531 13.915257 -1.9267646
15.262857 13.829803 -1.9215627
15.240096 14.073012 -1.9353108
15.254884 13.99814 -1.9315951
15.265431 14.101345 -1.9388407
15.278358 14.019682 -1.9345676
15.220579 14.243173 -1.9447857
15.245852 14.172278 -1.9419988
15.221132 14.515169 -1.9622494
15.223292 14.42619 -1.9566759
15.23085 14.342793 -1.9518455
15.240637 14.442627 -1.9589053
15.157465 14.647628 -1.9665223
15.203079 14.594528 -1.9661508
15.238767 14.912497 -1.9891881
15.181838 14.856786 -1.9817568
15.134218 14.717385 -1.9694951
15.249638 15.117135 -2.0033078
15.234411 15.00221 -1.9947616
15.108213 14.976939 -1.9847293
15.096781 14.866677 -1.9767405
15.206069 15.366156 -2.01687
15.217586 15.276146 -2.0116677
15.244368 15.207157 -2.0088811
15.13624 15.199777 -2.0012641
15.113433 15.08182 -1.9919747
15.185839 15.545226 -2.0274594
15.203798 15.460703 -2.0230007
15.098092 15.449993 -2.0153837
15.11025 15.365573 -2.0105531
15.106762 15.271119 -2.0040507
15.085141 15.642962 -2.0274594
15.102311 15.562627 -2.0231864
15.118593 15.776538 -2.0386066
15.084039 15.845342 -2.0410216
15.07726 15.733406 -2.0330331
15.039661 15.898435 -2.041765
15.035887 16.101479 -2.0553272
15.050947 16.016428 -2.0504968
15.028926 16.298105 -2.068332
15.016387 16.182207 -2.0596001
15.023698 16.510834 -2.0826375
15.039355 16.418341 -2.0772498
15.026141 16.723398 -2.0975001
15.023843 16.615553 -2.0898829
14.989183 16.900536 -2.1075325
15.011977 16.81361 -2.1028879
14.985705 17.226942 -2.130198
14.966295 17.095875 -2.1197941
14.96333 16.984518 -2.1118054
12.597168 11.338571 -1.9819957
12.610519 11.279071 -1.9785111
12.579467 11.470539 -1.9908231
12.594834 11.412286 -1.9875709
12.578643 11.397614 -1.9850155
12.552389 11.591129 -1.9980245
12.562393 11.527465 -1.993843
12.507146 11.703986 -2.003135
12.532798 11.65027 -2.0010443
12.578218 11.770494 -2.014518
12.468165 11.889886 -2.01475
12.478059 11.824698 -2.0103364
12.503581 11.774541 -2.0084782
12.546586 11.968841 -2.0277588
12.564571 11.906682 -2.0242746
12.56721 11.834461 -2.0186992
12.445413 12.0226 -2.0235777
12.450162 11.951805 -2.0182347
12.534737 12.113118 -2.038445
12.414367 12.148568 -2.0312436
12.414024 12.072111 -2.0249712
12.526527 12.258327 -2.0495951
12.536498 12.191212 -2.0449493
12.403378 12.295607 -2.0423942
12.398788 12.209807 -2.0349603
12.495076 12.386508 -2.0574937
12.503527 12.312949 -2.0521507
12.375596 12.505884 -2.0574937
12.386153 12.433817 -2.0523829
12.390006 12.359762 -2.0465753
12.468093 12.52043 -2.0663211
12.45305 12.588536 -2.0707347
12.363491 13.064898 -2.1034892
10.858943 9.9016867 -2.0653291
10.875323 9.8542213 -2.0625455
10.854046 9.959857 -2.0703392
10.830124 10.067494 -2.0781329
10.80814 10.177955 -2.0864832
10.778519 10.347075 -2.0998437
9.4461384 8.7258101 -2.1127548
9.3943634 8.9024687 -2.1263728
9.3694239 8.9943838 -2.1338303
9.3380318 9.0808392 -2.139991
9.2167349 9.4315557 -2.1665788
19.832935 16.302565 -1.7952527
19.833057 16.198532 -1.7906487
19.467655 16.002306 -1.7621881
19.457254 15.885921 -1.7564679
19.838982 16.517485 -1.8051581
19.84025 16.419119 -1.8008332
19.460493 16.20813 -1.7709773
19.472631 16.109165 -1.7672105
19.716797 16.638405 -1.804042
19.701349 16.507977 -1.7973453
19.495634 16.556906 -1.788556
19.477407 16.43639 -1.7821383
19.464525 16.315323 -1.7759998
19.634809 16.894575 -1.8112966
19.507772 16.785269 -1.7995775
19.507208 16.672527 -1.7944155
19.648609 17.122465 -1.8224577
19.64271 17.232269 -1.8272011
19.654377 17.690687 -1.8491046
19.677147 17.599586 -1.8460352
19.683203 17.487854 -1.8411523
19.675365 17.940908 -1.8619398
19.710293 18.200884 -1.8760306
19.661531 18.041756 -1.8659858
19.769787 18.500248 -1.8933302
19.731663 18.342211 -1.8838433
19.744713 18.828943 -1.9078395
19.779144 18.743496 -1.9054679
19.843908 20.448748 -1.9925239
15.441416 12.856172 -1.8745594
15.528584 12.85093 -1.8805045
15.312165 12.753098 -1.8591394
15.319083 12.67305 -1.8548663
15.359045 13.043858 -1.8799472
15.369509 12.969859 -1.8762316
15.397895 12.902065 -1.8741878
15.292261 12.987141 -1.8717728
15.316242 12.92491 -1.8697289
15.331545 12.851025 -1.866385
15.280522 13.147972 -1.8806902
15.286193 13.064888 -1.8760457
15.322223 13.352304 -1.8961103
15.319737 13.261021 -1.8903509
15.275681 13.311748 -1.8903509
15.273769 13.225893 -1.8849634
15.281955 13.49183 -1.9018697
15.259892 13.387287 -1.8938808
15.282667 13.578128 -1.9072574
15.289385 13.761806 -1.9191476
15.276718 13.930017 -1.9288085
15.296796 13.860556 -1.9258357
15.236572 14.258139 -1.9468293
15.247312 14.173635 -1.9421848
15.251746 14.549433 -1.9665223
15.251145 14.361905 -1.9544464
15.237361 14.719697 -1.9765549
15.231811 14.622109 -1.9698666
15.239862 14.820119 -1.983243
15.100348 15.658731 -2.0295031
15.148075 15.609786 -2.0293174
15.095022 15.856879 -2.0425081
15.060222 15.914618 -2.0441802
12.695859 10.782114 -1.9478472
12.712968 10.728086 -1.945292
12.727497 10.66451 -1.9418074
12.745426 10.683319 -1.9448274
12.692117 10.847769 -1.9524934
12.665112 10.897569 -1.9538871
12.649242 10.949396 -1.9564424
12.654801 11.027823 -1.962947
12.652505 11.099862 -1.9682899
12.626507 11.147441 -1.9696835
12.622637 11.07366 -1.9636438
12.600121 11.341228 -1.9824603
12.610519 11.279071 -1.9785111
12.608776 11.206404 -1.9727036
12.598549 11.487939 -1.993843
12.567876 11.609495 -2.0008121
12.587275 11.550297 -1.9977921
12.580811 11.694902 -2.0087104
12.543307 12.041223 -2.0333343
12.482052 12.455942 -2.0621397
11.004431 9.4686527 -2.0402777
10.971601 9.5610256 -2.0452881
10.942293 9.6605148 -2.0514116
10.906252 9.7547436 -2.056422
9.6087112 8.2677193 -2.0826004
9.5848465 8.352561 -2.0887609
9.5645113 8.39081 -2.0903821
9.5114756 8.5072308 -2.0965426
9.468751 8.6340446 -2.1052973
9.4855928 8.5949755 -2.1030276
11.04481 3.4887741 -1.9029708
11.051947 3.452883 -1.9023222
10.880486 3.4389565 -1.8747617
11.026426 3.5593145 -1.9036193
11.035674 3.5240583 -1.903295
10.871196 3.5133967 -1.8770316
10.880906 3.4767284 -1.8767072
11.008201 3.6342225 -1.9045919
11.016438 3.5964756 -1.9039434
10.855776 3.5860028 -1.8783284
10.86635 3.547477 -1.8780042
10.990273 3.7435358 -1.9075102
10.992629 3.7058399 -1.9058889
11.004216 3.6712897 -1.9058889
10.832706 3.6919746 -1.8802739
10.84986 3.6598186 -1.8812466
10.851944 3.6225927 -1.8796254
10.968931 3.8176413 -1.9081587
10.975934 3.7793155 -1.9071859
10.813573 3.7656858 -1.8812466
10.827867 3.7304513 -1.8815709
10.942192 3.8877306 -1.9078344
10.960608 3.853389 -1.908807
10.798999 3.8368545 -1.8828678
10.810998 3.8029115 -1.8828678
10.923112 3.9584284 -1.908807
10.934322 3.921515 -1.9084828
10.783953 3.9079983 -1.8844891
10.794319 3.8734357 -1.8841648
10.882763 4.0624075 -1.9084828
10.902877 4.0309329 -1.9097799
10.91734 3.9973414 -1.910104
10.767428 4.0214953 -1.8883799
10.772604 3.9849122 -1.8870829
10.777659 3.9483311 -1.8857861
10.879558 4.1436272 -1.9126979
10.8877 4.1054349 -1.9117253
10.764083 4.0974908 -1.8922709
10.765822 4.0594788 -1.8903254
10.864346 4.2161884 -1.9146434
10.864644 4.1770759 -1.9123738
10.740351 4.1702199 -1.8929193
10.757081 4.137876 -1.8935677
10.85416 4.2908936 -1.9175617
10.862073 4.2546158 -1.9165889
10.653372 4.2136726 -1.8822193
10.837299 4.4071808 -1.922101
10.838277 4.3679509 -1.9198314
10.850867 4.3312564 -1.919507
10.636173 4.2886648 -1.8841648
10.638249 4.2463875 -1.8818952
10.840389 4.4880257 -1.927613
10.832527 4.4449544 -1.9237221
10.621866 4.4018927 -1.8890284
10.625449 4.3621497 -1.8870829
10.618992 4.3205686 -1.8835164
10.823913 4.5632982 -1.9298828
10.829093 4.5254645 -1.9282616
10.604908 4.4731474 -1.8909738
10.603296 4.4311047 -1.8880557
10.826862 4.6471133 -1.9357191
10.830511 4.6084423 -1.9337736
10.5758 4.5415382 -1.8909738
10.602728 4.5136991 -1.8932436
10.798009 4.7579889 -1.9386373
10.820137 4.7272048 -1.9399343
10.826699 4.6873746 -1.938313
10.598536 4.6723022 -1.9029708
10.582418 4.6255474 -1.8974587
10.608564 4.5951385 -1.8994042
10.779666 4.8332672 -1.9409069
10.778566 4.7921648 -1.9379888
10.609557 4.7592258 -1.9104283
10.59643 4.7111864 -1.9052405
10.762592 4.909337 -1.943501
10.778812 4.8736219 -1.943501
10.627925 4.8479085 -1.9191828
10.621526 4.8047323 -1.9152919
10.721713 4.9745836 -1.9418797
10.735494 4.9400525 -1.9415555
10.642082 4.9398885 -1.927613
10.63151 4.8922033 -1.9227495
10.666339 5.0738816 -1.9405826
10.733988 5.0647674 -1.9499857
10.689367 5.0437131 -1.9418797
10.656898 4.9875216 -1.9331253
10.596043 5.1246071 -1.9337736
10.616536 5.0911498 -1.9344221
10.631576 5.1417918 -1.9402585
10.653014 5.11093 -1.9412313
10.577802 5.1980515 -1.9363675
10.572794 5.1544142 -1.9324768
10.621561 5.1804829 -1.9415555
10.569576 5.2813239 -1.9412313
10.581727 5.2436132 -1.9402585
10.573803 5.4085588 -1.9512826
10.569623 5.3645968 -1.9473919
10.500827 5.3735437 -1.9379888
10.526454 5.3449974 -1.93961
10.552933 5.3145013 -1.9412313
10.620957 5.5195065 -1.966522
10.583873 5.4580688 -1.9564706
10.493924 5.4558091 -1.9431767
10.497925 5.4137454 -1.9405826
10.64618 5.6202216 -1.9778705
10.635816 5.5720906 -1.9726826
10.486394 5.538209 -1.9483645
10.474024 5.4896646 -1.9428524
10.623579 5.6963153 -1.9804643
10.635439 5.6573496 -1.9791673
10.462585 5.6123428 -1.9506342
10.4672 5.5702014 -1.9480402
10.578792 5.8037248 -1.9824098
10.588305 5.7657447 -1.9807886
10.609105 5.7315364 -1.9811128
10.444448 5.6874089 -1.9538767
10.450108 5.6480017 -1.9516069
10.542819 5.8728747 -1.9827341
10.557054 5.8350196 -1.9817615
10.413512 5.8008447 -1.958416
10.426501 5.7652378 -1.9574432
10.435911 5.7277074 -1.955822
10.50467 5.9408402 -1.9827341
10.519149 5.9030776 -1.9817615
10.387857 5.8747773 -1.9606857
10.39938 5.8382463 -1.9593887
10.471222 6.0115013 -1.9837068
10.497959 5.9806485 -1.9850037
10.353125 5.9437017 -1.9613341
10.37278 5.9093342 -1.9613341
10.416438 6.1137357 -1.9843553
10.434952 6.0781641 -1.9840311
10.442035 6.0384378 -1.9817615
10.287084 6.0378137 -1.9597129
10.299184 6.0014887 -1.958416
10.327568 5.9722438 -1.9600371
10.374428 6.1770449 -1.9837068
10.388687 6.1414061 -1.9827341
10.254664 6.1081543 -1.96101
10.266368 6.0690951 -1.9593887
10.352902 6.2551374 -1.9872735
10.365732 6.2185235 -1.9859766
10.225139 6.1803741 -1.9629554
10.25065 6.1494846 -1.9639281
10.345946 6.3424883 -1.9937582
10.348375 6.2968626 -1.9901917
10.204612 6.2558446 -1.966522
10.219156 6.2206783 -1.9655492
10.343127 6.4781733 -2.0051067
10.323206 6.4206333 -1.9973249
10.334367 6.3801417 -1.9953794
10.175732 6.3289099 -1.9687917
10.18491 6.2878709 -1.966522
10.316069 6.5543561 -2.0080249
10.327731 6.5137963 -2.0060794
10.141164 6.4432292 -1.9739796
10.158016 6.409234 -1.9733311
10.174758 6.3751912 -1.9726826
10.273527 6.6208377 -2.0080249
10.293762 6.5856719 -2.0077007
10.124227 6.5246201 -1.9788431
10.129182 6.4803777 -1.9756008
10.241637 6.6917353 -2.0099704
10.252674 6.6530833 -2.0080249
10.083532 6.5909433 -1.9791673
10.100878 6.557086 -1.978519
10.182311 6.7958956 -2.0112672
10.201503 6.7599092 -2.0106187
10.222214 6.7249599 -2.0102944
10.062008 6.7130713 -1.9872735
10.073182 6.6748791 -1.985328
10.0814 6.6373711 -1.9830582
10.127968 6.8519979 -2.0089974
10.157636 6.8256469 -2.0106187
10.030345 6.7884974 -1.9898673
10.043432 6.7514496 -1.9882462
10.088391 6.9206085 -2.0099704
10.114549 6.8893352 -2.0106187
9.9976845 6.86095 -1.992137
10.017118 6.8255391 -1.9914886
10.083248 6.9663625 -2.0135369
9.9919014 6.9006763 -1.9950552
9.9241905 7.3381562 -2.0278034
9.8782244 7.4491901 -2.0326672
9.9042559 7.3716526 -2.0284522
9.8505545 7.5313177 -2.0372066
9.8284073 7.5634336 -2.0375309
9.7801914 7.6769261 -2.0427186
9.8027029 7.6449504 -2.0423944
9.7637691 7.7137284 -2.0443399
9.7458601 7.7522044 -2.0459611
9.7153959 7.8281507 -2.0498521
9.6872091 7.9628329 -2.0602276
9.701334 7.9206772 -2.0576336
9.6718731 8.0525818 -2.0676851
9.6819162 8.0095787 -2.0644426
9.6348286 8.1824961 -2.0767639
9.6587276 8.0960236 -2.0706034
10.677032 5.078968 -1.9425281
10.601692 5.2120824 -1.9409069
10.589921 5.2891741 -1.9447979
10.581727 5.2436132 -1.9402585
10.581135 5.3287039 -1.946419
12.96004 9.5829277 -1.8848937
