# .PCD v0.7 - Point Cloud Data file format
VERSION 0.7
FIELDS x y z intensity
SIZE 4 4 4 4
TYPE F F F F
COUNT 1 1 1 1
WIDTH 1411
HEIGHT 1
VIEWPOINT 0 0 0 1 0 0 0
POINTS 1411
DATA ascii
3.5602117 -3.5305097 -1.4377245 1
3.8055086 -3.7737601 -1.4030131 1
4.1096649 -4.0753794 -1.3713666 1
4.4353704 -4.3983674 -1.3277241 2
4.8244886 -4.7842393 -1.2801417 2
1.965997 -1.9605145 -1.6465793 1
5.2711892 -5.2564898 -1.2230372 1
2.0668039 -2.0610404 -1.639981 1
5.7049823 -5.6890731 -1.1323124 9
2.164475 -2.1584389 -1.6253107 1
5.8683419 -5.8519769 -0.96916151 16
2.2640042 -2.2576907 -1.6059895 1
6.4919329 -6.4738288 -0.855349 31
2.3719006 -2.3652861 -1.5855424 1
7.1159568 -7.0961127 -0.70272672 13
2.5021145 -2.495137 -1.5732574 1
7.4170074 -7.3963237 -0.48847383 58
2.6409869 -2.6336222 -1.5578797 1
7.3621879 -7.3416572 -0.24139228 58
2.7887452 -2.7809682 -1.5378886 1
7.3599229 -7.3393984 0 82
2.9423554 -2.9341502 -1.5124131 1
7.4216514 -7.4009547 0.24334198 17
3.1448612 -3.1360912 -1.5007085 1
7.3561778 -7.3356638 0.48446769 12
3.322968 -3.3137014 -1.4643524 2
3.5544226 -3.5445104 -1.4393783 1
3.8072851 -3.7966678 -1.4075714 1
4.0941343 -4.0827169 -1.3699833 1
4.4244561 -4.4121175 -1.32814 2
4.8083262 -4.7949176 -1.2794011 2
1.9653735 -1.9708692 -1.6506599 1
5.2718196 -5.286561 -1.226604 1
2.0659657 -2.0717425 -1.6438998 1
5.6750884 -5.6909575 -1.129529 10
2.1659205 -2.171977 -1.6309444 1
5.8688092 -5.8852205 -0.97194904 22
2.2690487 -2.2753937 -1.6140689 1
6.4836721 -6.5018024 -0.85664946 31
2.3678393 -2.3744607 -1.5872539 1
7.0721641 -7.0919399 -0.70035505 12
2.5015879 -2.5085831 -1.5773247 1
7.5416265 -7.5627155 -0.49807003 22
2.6336224 -2.6409867 -1.5578797 1
7.3713064 -7.3919187 -0.24236713 61
2.782284 -2.7900641 -1.5386161 1
7.3210402 -7.3415117 0 83
2.946094 -2.9543321 -1.5185694 1
7.3233032 -7.3437815 0.2407888 60
3.1227124 -3.1314442 -1.4943061 1
3.3204422 -3.3297272 -1.4673311 1
3.5567286 -3.5666745 -1.4443399 1
3.7953022 -3.8059149 -1.407065 1
4.0868402 -4.098268 -1.3713666 1
4.4259319 -4.4383082 -1.3322983 2
4.818511 -4.831985 -1.2856963 2
1.959517 -1.976692 -1.6506599 1
5.2616682 -5.307786 -1.2279009 2
2.0512166 -2.0691953 -1.6370422 1
5.6414456 -5.6908922 -1.1261888 10
2.161953 -2.1809025 -1.6328222 1
5.8513212 -5.9026079 -0.97194904 28
2.2547379 -2.2745006 -1.6086826 1
6.472764 -6.5294971 -0.85776418 31
2.3646016 -2.3853271 -1.5898207 1
7.0342355 -7.09589 -0.69868088 10
2.4877021 -2.5095067 -1.5732574 1
2.621877 -2.6448574 -1.5555671 1
7.3704562 -7.4350576 -0.24306345 58
2.7818627 -2.8062456 -1.5429809 1
7.314713 -7.3788261 0 77
2.9346688 -2.960391 -1.5172014 1
7.2859974 -7.3498583 0.24027815 73
3.1094053 -3.1366589 -1.4923854 1
7.2758298 -7.3396015 0.48195219 42
3.31458 -3.343632 -1.4691184 1
3.5528977 -3.5840385 -1.4470962 1
3.7976139 -3.8308997 -1.41213 1
4.0705519 -4.1062298 -1.3699833 1
4.4141207 -4.4528098 -1.3327141 2
4.8096871 -4.8518434 -1.2871774 2
1.9584733 -1.9873985 -1.6547407 1
5.2417407 -5.3191571 -1.2269281 5
2.0438445 -2.0740304 -1.6360624 1
5.6148043 -5.697731 -1.1242404 10
2.1554728 -2.1873076 -1.6328222 1
5.8309937 -5.9171133 -0.97148448 24
2.2517431 -2.2849996 -1.6113758 1
6.4617481 -6.5571837 -0.85887891 31
2.3600516 -2.394908 -1.5915322 3
6.996346 -7.0996766 -0.6970067 13
2.4828103 -2.5194795 -1.5748844 1
51.988319 -52.756149 -3.4540682 23
2.6217899 -2.660512 -1.5601922 1
7.2795954 -7.3871098 -0.2407888 16
2.7669861 -2.8078525 -1.5393436 1
7.3236718 -7.4318371 0 83
2.9298301 -2.9731016 -1.5192535 1
7.2641578 -7.3714442 0.24027815 70
3.1107247 -3.1566677 -1.4975073 1
7.2371931 -7.3440809 0.48083419 45
3.3033049 -3.3520923 -1.4685225 1
3.542248 -3.5945644 -1.4470962 1
3.784873 -3.8407726 -1.4116236 1
4.0679126 -4.1279926 -1.3732111 1
4.4063816 -4.4714608 -1.3343773 2
4.8007889 -4.8716931 -1.2886587 2
1.9449985 -1.986167 -1.6486195 1
5.2291465 -5.3398285 -1.2279009 5
2.0434182 -2.0866699 -1.6409608 1
5.5816345 -5.6997771 -1.1211786 9
2.152297 -2.1978533 -1.6356391 1
5.8123755 -5.9354024 -0.97148448 26
2.2470541 -2.294616 -1.6131711 1
6.4494762 -6.585988 -0.85999358 31
2.3474569 -2.3971441 -1.5881095 1
6.9530687 -7.1002398 -0.69491404 12
2.4851096 -2.5377102 -1.5813922 1
51.735657 -52.830711 -3.4482918 23
2.6237485 -2.6792836 -1.5663589 1
7.212985 -7.3656573 -0.23934974 67
2.7581513 -2.8165314 -1.5393436 2
7.3898444 -7.5462604 0 41
2.9270499 -2.9890046 -1.5226736 1
7.2549534 -7.4085145 0.24074239 65
3.0968153 -3.1623638 -1.4955866 1
7.2029033 -7.3553624 0.48008886 49
3.2981007 -3.3679094 -1.4709055 1
3.5228672 -3.5974333 -1.4437886 1
3.7795568 -3.859556 -1.4141561 1
4.0576472 -4.1435328 -1.3741333 1
4.3923125 -4.4852819 -1.3343773 2
4.8088374 -4.9106231 -1.2949538 2
1.9442452 -1.9965204 -1.6527004 1
5.2155914 -5.355824 -1.2282251 5
2.0351503 -2.0898697 -1.6390015 1
5.5532598 -5.7025709 -1.1186734 10
2.1387589 -2.196264 -1.6300054 1
5.80548 -5.9615726 -0.97311062 18
2.2344034 -2.2944801 -1.6086826 1
6.443563 -6.6168122 -0.86166561 31
2.3394926 -2.402395 -1.5872539 1
6.9151187 -7.1010466 -0.69310033 10
2.4690905 -2.5354772 -1.5756978 1
51.525208 -52.910572 -3.4440994 47
2.6020937 -2.6720567 -1.5578797 1
7.2007575 -7.3943653 -0.23962826 61
2.7541747 -2.8282266 -1.5415261 2
2.9082022 -2.9863954 -1.5172014 1
7.2495813 -7.4445019 0.241253 65
3.0972259 -3.1805015 -1.5000682 1
7.1614275 -7.3539782 0.47869131 48
3.2806911 -3.3688996 -1.4673311 1
3.5195141 -3.6141436 -1.4465449 1
3.7728133 -3.8742535 -1.4156755 1
4.0487757 -4.1576357 -1.3750556 1
4.3893242 -4.5073409 -1.3372881 2
4.7759089 -4.9043198 -1.2897696 2
1.9446459 -2.0081208 -1.6578013 1
5.2115989 -5.3817096 -1.2308191 5
2.0377972 -2.1043127 -1.6458591 1
5.5249143 -5.7052517 -1.1161684 10
2.1375318 -2.2073026 -1.6337612 1
5.7901917 -5.9791884 -0.9733429 17
2.2292306 -2.3019946 -1.6095804 1
6.433373 -6.6433635 -0.86278033 28
2.3403201 -2.4167101 -1.5923878 1
6.8827705 -7.10743 -0.6918447 15
2.4632716 -2.5436747 -1.5765113 1
7.1088982 -7.3409386 -0.47654849 2
2.6061764 -2.6912441 -1.5648173 1
2.7501543 -2.8399217 -1.5437086 1
2.9024663 -2.9972053 -1.5185694 1
7.1828628 -7.4173174 0.2397211 30
3.1001949 -3.2013876 -1.5058302 1
7.1255765 -7.358161 0.4776665 48
3.2792397 -3.3862767 -1.4709055 1
3.5227821 -3.6377685 -1.4520576 1
3.7619801 -3.8847742 -1.4156755 1
4.0493345 -4.1815081 -1.3792057 1
4.3903298 -4.5336337 -1.3414463 2
4.7621951 -4.9176373 -1.2897696 2
1.9327139 -2.0076854 -1.6527004 1
5.2010822 -5.4028363 -1.232116 5
2.0291259 -2.1078374 -1.6438998 1
5.5052147 -5.7187662 -1.1156117 11
2.1383209 -2.2212682 -1.6393948 1
5.786202 -6.0106535 -0.97566593 17
2.226109 -2.3124616 -1.6122735 1
6.4288244 -6.6782036 -0.864824 28
2.3356464 -2.4262481 -1.594099 1
6.8436632 -7.1091347 -0.69003099 12
2.4595149 -2.5549214 -1.5789517 1
2.6032991 -2.7042832 -1.5679007 1
2.7442997 -2.8507533 -1.5451634 1
2.9052908 -3.0179896 -1.5247258 1
7.1025829 -7.3780975 0.23777141 53
3.078856 -3.1982875 -1.5000682 1
7.0870852 -7.361999 0.47654849 48
3.2797706 -3.4069958 -1.4756716 1
3.5186398 -3.6551306 -1.4548141 1
3.7598295 -3.9056764 -1.419221 1
4.0571547 -4.2145352 -1.3861223 1
4.3809285 -4.5508685 -1.3426938 2
4.7680287 -4.9529848 -1.2953241 2
1.9310204 -2.0164654 -1.6557609 1
5.1978393 -5.4278369 -1.2347099 5
2.0223947 -2.1118829 -1.6429201 3
5.4737859 -5.7159939 -1.1122715 11
2.1312771 -2.2255833 -1.6384559 1
5.7800632 -6.0358238 -0.97729206 18
2.2200472 -2.3182814 -1.6122735 1
6.4223375 -6.7065177 -0.86631024 26
2.325536 -2.4284379 -1.5915322 1
6.8015704 -7.102531 -0.68765932 13
2.4540813 -2.5626712 -1.5797652 1
2.588552 -2.7030921 -1.5632756 1
2.7368271 -2.857928 -1.5451634 1
50.791214 -53.038658 0 21
2.8934803 -3.0215132 -1.5226736 1
7.0514359 -7.3634529 0.23670371 65
3.0770245 -3.2131789 -1.5032693 1
7.0484428 -7.3603272 0.47524416 48
3.2721605 -3.4169493 -1.4762673 1
3.5130475 -3.6684952 -1.4564679 1
3.7469158 -3.9127119 -1.4182081 1
4.0326471 -4.2110868 -1.3815112 1
4.3730588 -4.5665607 -1.3439413 2
4.7536864 -4.9640312 -1.2949538 2
1.9306054 -2.0287528 -1.6608617 1
5.2011695 -5.4655848 -1.2395736 5
2.0241642 -2.127068 -1.6497779 1
5.4353223 -5.7116413 -1.1080964 10
2.1242747 -2.2322679 -1.6384559 1
5.7569647 -6.0496349 -0.9765951 17
2.2189138 -2.331718 -1.616762 1
6.4067278 -6.7324305 -0.86705339 28
2.3253725 -2.4435887 -1.5966661 1
6.7682204 -7.1123004 -0.68654317 13
2.452316 -2.5769861 -1.5838326 1
2.582592 -2.7138846 -1.5648173 1
2.7316883 -2.8705606 -1.5473459 2
50.563679 -53.134212 0 21
2.8878605 -3.0346725 -1.5247258 1
7.0186195 -7.3754292 0.23637874 73
3.0564659 -3.2118492 -1.4981475 1
7.0060043 -7.3621726 0.47393984 49
3.2666743 -3.432744 -1.4786503 1
3.5054815 -3.6836917 -1.4581218 1
3.7439418 -3.9342747 -1.4217536 1
4.0220814 -4.2265544 -1.3824335 1
4.3640857 -4.5859451 -1.3456045 2
4.7489071 -4.9903302 -1.2979163 2
1.9328527 -2.04322 -1.6680032 1
5.1795049 -5.4752584 -1.2382766 5
2.0154476 -2.1305311 -1.6478184 1
5.4115458 -5.7205491 -1.1067046 10
2.112788 -2.2334294 -1.6347001 1
5.7458153 -6.0739055 -0.97775662 16
2.2144418 -2.340888 -1.6185575 2
6.3935666 -6.7586436 -0.86798233 31
2.3255656 -2.4583571 -1.6018001 1
6.7292643 -7.1135097 -0.68472958 15
2.4509373 -2.5908875 -1.5878999 1
6.9525509 -7.3495464 -0.47179699 67
2.5770645 -2.7242167 -1.5663589 1
7.0063243 -7.4063902 -0.23670371 45
2.7257197 -2.8813601 -1.5488008 2
2.8827183 -3.0473237 -1.5267779 1
6.9788427 -7.3773394 0.23577528 75
3.057339 -3.2319152 -1.5032693 1
6.9662805 -7.3640599 0.47272867 49
3.2564745 -3.4424214 -1.4786503 1
3.4945362 -3.6940768 -1.4581218 1
3.741559 -3.9552045 -1.4252992 1
4.0055108 -4.2342281 -1.3810501 1
4.3437376 -4.5917683 -1.3435255 2
4.7300277 -5.0001154 -1.2968054 2
1.9180658 -2.0382509 -1.6598417 1
5.1800303 -5.5046086 -1.2418432 4
2.0098631 -2.1358001 -1.6478184 1
5.3816214 -5.7188311 -1.1036428 10
2.1178253 -2.2505274 -1.6431506 1
5.7380624 -6.0976067 -0.97915041 17
2.2046316 -2.3427727 -1.6158643 2
6.3813095 -6.7811594 -0.86872542 33
2.3191216 -2.4644368 -1.6018001 1
6.694211 -7.113667 -0.6830554 12
2.4491544 -2.6026173 -1.5911539 1
6.9168563 -7.3502631 -0.47067899 67
2.577512 -2.7390177 -1.570984 1
2.7143369 -2.8844159 -1.5466185 2
2.867003 -3.046648 -1.5226736 1
6.9458027 -7.3810234 0.23531106 75
3.0488675 -3.2399082 -1.5032693 1
6.9305482 -7.3648133 0.47161067 45
3.2487597 -3.4523253 -1.479246 1
3.4874883 -3.7060125 -1.4592242 1
3.7192581 -3.9523051 -1.4207406 1
4.0104165 -4.2617073 -1.3865836 1
4.3558335 -4.628768 -1.3510102 2
4.7344313 -5.0310884 -1.3016193 2
1.9041387 -2.034807 -1.6527004 1
5.1875625 -5.5435495 -1.2473553 1
2.0003169 -2.1375852 -1.6448796 1
5.3534508 -5.7208219 -1.1011376 9
2.100673 -2.244828 -1.6347001 1
5.7264419 -6.1194086 -0.98007971 16
2.2102923 -2.3619697 -1.6248413 1
6.377315 -6.8149471 -0.87076908 31
2.3184063 -2.4775031 -1.6060784 1
6.6620502 -7.1192222 -0.68179977 15
2.4281445 -2.5947716 -1.5822055 1
6.8799238 -7.3520465 -0.46956101 67
2.5723753 -2.7489002 -1.5725257 1
49.927029 -53.353184 -1.6964772 22
2.7100902 -2.8960655 -1.5488008 1
2.8790302 -3.0765986 -1.5336183 1
6.9033051 -7.3770323 0.23456833 75
3.0540493 -3.263628 -1.510312 1
6.8935738 -7.3666334 0.47049266 45
3.2404108 -3.4627783 -1.4798418 1
3.4692438 -3.7073145 -1.4559165 1
3.7201047 -3.9753904 -1.4252992 1
4.0104671 -4.2856784 -1.3907336 1
4.3201666 -4.6166306 -1.3439413 2
4.7136488 -5.0371151 -1.2997679 2
1.9117941 -2.0558958 -1.6649426 1
5.1754971 -5.5656004 -1.2486522 1
1.9959663 -2.1464124 -1.6468389 1
5.3260112 -5.7274599 -1.0991892 10
2.1068382 -2.2656415 -1.6450285 1
5.7125993 -6.143187 -0.98100883 17
2.1967757 -2.3623579 -1.6203527 1
6.370791 -6.8509893 -0.87281275 31
2.3056877 -2.4794791 -1.6026558 1
6.6192722 -7.1182003 -0.67970705 13
2.4212253 -2.6037252 -1.5830191 1
6.840467 -7.3560677 -0.46844301 70
2.5637269 -2.756968 -1.5725257 1
2.6984413 -2.9018364 -1.5473459 1
49.678604 -53.423134 0 21
2.8629513 -3.0787463 -1.530198 1
6.8637567 -7.3811131 0.23401126 73
3.0450714 -3.2745938 -1.5109521 1
6.8513508 -7.3677716 0.46918833 28
3.2334168 -3.4771359 -1.4816291 1
3.4693625 -3.730866 -1.460878 1
3.7075973 -3.9870577 -1.4252992 1
3.9943333 -4.2954063 -1.3898114 1
4.3336186 -4.6602654 -1.3526736 2
4.7098465 -5.0648518 -1.3031005 2
1.9095492 -2.0650153 -1.6680032 1
5.1760135 -5.5974193 -1.2525432 1
1.9946997 -2.1570985 -1.6507576 1
5.2952056 -5.726315 -1.0961274 10
2.0969064 -2.2676263 -1.6422117 1
5.7008166 -6.1649494 -0.98193806 17
2.1950238 -2.3737319 -1.6239437 1
6.363802 -6.8819118 -0.87448478 33
2.3036637 -2.4912169 -1.6060784 1
6.5844688 -7.120544 -0.67817241 12
2.4213874 -2.618525 -1.5878999 1
6.806334 -7.3604727 -0.4675113 64
2.5547647 -2.7627611 -1.5717548 1
2.7055054 -2.9257746 -1.5560756 2
49.446392 -53.472076 0 21
2.8568947 -3.0894892 -1.5315661 1
6.8281851 -7.3841023 0.23350061 73
3.0397744 -3.2872579 -1.5128729 1
6.8144722 -7.3692732 0.4680703 11
3.2236941 -3.4861515 -1.4816291 1
3.4576254 -3.7391284 -1.4603268 1
3.7043307 -4.005919 -1.4283382 1
4.0061054 -4.332263 -1.3981115 1
4.3179312 -4.669476 -1.3518419 2
4.6916819 -5.0736556 -1.3019897 6
1.8964287 -2.0630734 -1.661882 1
5.1633897 -5.6171112 -1.253516 2
1.9823906 -2.156589 -1.6458591 1
5.2688093 -5.7317948 -1.094179 10
2.0818036 -2.2647376 -1.6356391 1
5.6905661 -6.1906123 -0.98333186 22
2.1843429 -2.3762872 -1.6212505 1
6.3622222 -6.9212885 -0.87708575 33
2.2901454 -2.4913869 -1.6018001 1
6.5498109 -7.1253614 -0.6767773 12
2.4136076 -2.6256981 -1.5878999 1
6.7736487 -7.3688688 -0.46676597 44
2.5515518 -2.775764 -1.5748382 1
6.8224835 -7.4219947 -0.23405768 43
2.6917691 -2.9283025 -1.5531656 2
2.8617058 -3.1131721 -1.5390905 1
6.7886548 -7.3851933 0.23289713 73
3.0248785 -3.2906833 -1.510312 1
3.2262568 -3.5097573 -1.4875866 1
3.4426124 -3.7451248 -1.458673 1
3.6950471 -4.0197415 -1.4293511 1
3.9813807 -4.3312359 -1.3939614 1
4.3159728 -4.6952295 -1.3555844 2
4.6792674 -5.0904479 -1.3027302 4
1.898422 -2.0775805 -1.6690233 1
5.1467004 -5.6324067 -1.253516 2
1.9783356 -2.1650357 -1.6478184 1
5.2504439 -5.7459402 -1.0939007 11
2.0774572 -2.2735116 -1.637517 1
5.6828933 -6.2192011 -0.98519027 22
2.1736658 -2.3787994 -1.6185575 1
6.3497176 -6.9489551 -0.87820041 31
2.2693295 -2.4834914 -1.5923878 1
6.5299869 -7.1462364 -0.67691684 10
2.4168985 -2.6449869 -1.5952212 1
6.7436695 -7.380085 -0.46620697 26
2.5420599 -2.78196 -1.5740674 1
2.6868391 -2.9404023 -1.555348 2
2.8372433 -3.1050005 -1.5308822 1
6.7505279 -7.3875904 0.23234007 61
3.0163796 -3.3010421 -1.5109521 1
3.2145407 -3.5179043 -1.4869908 1
3.4366727 -3.7609994 -1.460878 1
3.6844094 -4.0321155 -1.4298577 1
3.9987059 -4.3760729 -1.4045672 1
4.307301 -4.7137909 -1.3572477 2
4.6747494 -5.1159158 -1.3056927 2
1.889936 -2.0806572 -1.6669829 1
5.1419086 -5.6608 -1.2564341 2
1.9742479 -2.1734774 -1.6497779 1
5.2253819 -5.752697 -1.0922306 11
2.0813885 -2.2914298 -1.6459675 1
5.6604085 -6.2316236 -0.98449343 26
2.1702032 -2.3892074 -1.6212505 1
6.3424606 -6.9825048 -0.88005823 24
2.2765362 -2.5062709 -1.6026558 1
6.5168033 -7.1744404 -0.67775393 7
2.4028976 -2.6453838 -1.5911539 1
6.7056227 -7.3823147 -0.46508896 58
2.5399988 -2.7963204 -1.5779216 1
48.777828 -53.700199 -1.6843146 22
2.684366 -2.9552565 -1.5589855 1
2.8406544 -3.1273165 -1.5377226 1
6.7137904 -7.3913069 0.23182945 32
3.0103939 -3.3141849 -1.5128729 1
3.1989541 -3.5217738 -1.4846078 1
3.4306688 -3.7768717 -1.4630831 1
3.6828365 -4.0544868 -1.4339097 1
3.9804699 -4.3821554 -1.4027226 1
4.2998724 -4.7337904 -1.3593267 2
4.6674781 -5.1384926 -1.3079145 2
1.8752562 -2.075387 -1.6588215 1
5.1231022 -5.6698484 -1.2554613 5
1.9720579 -2.1825194 -1.6527169 1
5.1970258 -5.7516618 -1.0894471 11
2.0765662 -2.2981811 -1.6469064 1
5.6533976 -6.2567382 -0.98611951 24
2.1711299 -2.4028368 -1.6266366 1
6.3401799 -7.0168152 -0.88228762 28
2.2699673 -2.5122223 -1.6026558 1
6.5220752 -7.218123 -0.68026513 7
2.3935142 -2.6489544 -1.5895269 1
6.6862736 -7.3998446 -0.46508896 54
2.5289576 -2.7988524 -1.5756091 1
2.6716242 -2.9567447 -1.5560756 1
48.544258 -53.724987 0 21
2.8211179 -3.1221924 -1.5315661 1
6.6903963 -7.404407 0.23169017 6
3.000437 -3.3206489 -1.5122327 1
3.1974037 -3.5386362 -1.4881823 1
3.4297919 -3.7958255 -1.4669421 1
3.6786954 -4.0712924 -1.4364423 1
3.9572418 -4.3795657 -1.3985727 1
4.2835307 -4.7406769 -1.3580793 2
4.6566453 -5.1536107 -1.3086551 2
1.8794357 -2.0924599 -1.6680032 1
5.1088939 -5.6879606 -1.2561098 5
1.9644085 -2.1870642 -1.6517373 1
5.1640558 -5.7493753 -1.086107 11
2.0685582 -2.3030188 -1.6459675 1
5.6441002 -6.2838302 -0.98774564 24
2.1604083 -2.4052794 -1.6239437 1
6.3286467 -7.0459666 -0.88358814 35
2.264919 -2.521636 -1.6043671 1
6.5179615 -7.2567391 -0.68207884 7
2.3880856 -2.6587629 -1.5911539 1
6.6923227 -7.4508629 -0.46704546 15
2.520642 -2.8063438 -1.5756091 1
2.667819 -2.9702027 -1.5589855 1
48.331177 -53.809269 0 21
2.829423 -3.1501236 -1.5411427 1
2.991837 -3.3309464 -1.5128729 1
3.1932688 -3.5552094 -1.491161 1
3.4133756 -3.8002644 -1.4647369 1
3.6704779 -4.0865078 -1.4379617 1
3.9533327 -4.4014225 -1.4018005 1
4.2890544 -4.7751966 -1.3643166 2
4.6570935 -5.1849513 -1.3130988 2
1.8800932 -2.1057262 -1.6741242 1
5.0906811 -5.701622 -1.2557856 6
1.9567496 -2.1915822 -1.6507576 1
5.1377416 -5.7543302 -1.0841585 11
2.0734773 -2.3223186 -1.6553569 1
5.633369 -6.3094387 -0.98913944 24
2.1544526 -2.413012 -1.6248413 1
6.3183246 -7.0765972 -0.8850745 37
2.2586315 -2.5296936 -1.6052227 1
6.5203195 -7.3028336 -0.68458998 7
2.386271 -2.6726513 -1.5952212 1
2.5209084 -2.8234468 -1.581005 1
6.6396818 -7.4365206 -0.23145805 46
2.6627171 -2.9822743 -1.561168 1
2.8238194 -3.1627104 -1.5431948 1
48.166325 -53.946842 1.679069 22
2.9932985 -3.3525293 -1.518635 1
3.1877928 -3.570365 -1.4935441 1
3.4161704 -3.8261504 -1.4708011 1
3.6570485 -4.0959368 -1.4374552 1
3.9389601 -4.4116812 -1.4013393 1
4.2709584 -4.7835231 -1.3630692 2
4.6521616 -5.210475 -1.3160611 2
1.864702 -2.1010029 -1.6659628 1
5.0763617 -5.7196536 -1.2564341 9
1.9560252 -2.2038989 -1.655656 1
5.1022396 -5.7488112 -1.0802617 10
2.0595443 -2.3205361 -1.6497232 1
5.6251726 -6.3380117 -0.99099785 26
2.152029 -2.4247408 -1.6284322 1
6.293334 -7.0908446 -0.88451707 50
2.2595153 -2.5458481 -1.6112124 1
6.5184884 -7.3445311 -0.68668276 7
2.381969 -2.6838193 -1.5976616 1
6.5511818 -7.3813677 -0.4602443 12
2.5088446 -2.8267732 -1.5786924 1
2.6501467 -2.9859815 -1.5589855 1
2.8106802 -3.1668582 -1.5411427 1
47.903851 -53.974377 1.6754946 22
2.9808223 -3.3585615 -1.5173545 1
3.173383 -3.5755239 -1.4917568 1
3.400974 -3.8319559 -1.4691472 1
3.6500168 -4.1125584 -1.4394813 1
3.9348958 -4.433538 -1.4045672 1
4.277524 -4.8195853 -1.3697224 2
4.6275487 -5.2139659 -1.3134691 2
1.8633807 -2.111361 -1.6700435 1
5.0538397 -5.726409 -1.2548128 12
1.9498631 -2.2093525 -1.655656 1
5.0835452 -5.7600675 -1.079705 10
2.0460451 -2.3183343 -1.6440895 1
5.6087661 -6.3551855 -0.99123013 28
2.1440666 -2.4294007 -1.6275344 2
6.2721901 -7.1068983 -0.88433129 43
2.2500048 -2.5494373 -1.609501 1
6.4741893 -7.3357801 -0.6841715 8
2.3720469 -2.687721 -1.5960346 1
2.5107102 -2.8448377 -1.5848591 1
47.665615 -54.008995 -1.6724306 22
2.6417978 -2.9933705 -1.5589855 2
2.808044 -3.181741 -1.5445629 1
47.653706 -53.995502 1.6720129 22
2.971432 -3.3668725 -1.5173545 1
3.1646492 -3.5858033 -1.4923526 1
3.3953483 -3.8472042 -1.4713523 1
3.6474798 -4.1328897 -1.4430268 1
3.9340892 -4.4576411 -1.4087172 1
4.2562814 -4.822711 -1.3672274 2
4.6389804 -5.25634 -1.3208752 2
1.8605114 -2.1207597 -1.673104 1
5.0264149 -5.7295103 -1.252219 12
1.9398497 -2.2111959 -1.6527169 1
5.0651264 -5.7736363 -1.0794266 9
2.0484741 -2.3350146 -1.6516011 1
5.6082253 -6.392704 -0.99448234 26
2.1356704 -2.4344082 -1.6266366 1
6.2418838 -7.1149988 -0.88303083 47
2.2448149 -2.5588198 -1.6112124 1
6.5234451 -7.435945 -0.69170517 7
2.3676767 -2.6988676 -1.5984751 1
6.4953852 -7.4039598 -0.45931265 48
2.4998245 -2.8494999 -1.5833175 1
2.645191 -3.0152001 -1.5662602 2
47.449379 -54.086597 0 21
2.7948728 -3.1858196 -1.5425109 1
47.49329 -54.136654 1.6720129 22
2.9664276 -3.3813715 -1.5199155 1
3.1628096 -3.6052234 -1.4965228 1
3.3826511 -3.8558164 -1.4708011 1
3.6339254 -4.1422391 -1.4425201 1
3.9157124 -4.4634423 -1.4068727 1
4.244534 -4.8382592 -1.368059 2
4.6324377 -5.2804232 -1.3234673 2
1.8560839 -2.1269193 -1.6741242 1
4.9971237 -5.7262921 -1.2486522 11
1.9397864 -2.2228355 -1.6576153 1
5.0617132 -5.8003068 -1.0819317 6
2.0319042 -2.3283949 -1.6431506 1
5.5966945 -6.4133511 -0.99541157 28
2.1339903 -2.4453771 -1.6302276 1
6.2035956 -7.1088095 -0.88024408 50
2.2392967 -2.5660498 -1.6120681 1
6.5196977 -7.4710364 -0.69337934 7
2.3690121 -2.7146928 -1.6041694 1
6.5009375 -7.4495392 -0.46108282 29
2.4887156 -2.8518631 -1.581005 1
2.6372879 -3.0221148 -1.5662602 2
47.232658 -54.124737 0 21
2.7865226 -3.1931255 -1.5425109 1
47.310646 -54.214104 1.6705739 22
2.9550734 -3.3862708 -1.518635 1
3.1571262 -3.6178067 -1.4983101 1
3.3851855 -3.8791437 -1.4763138 1
3.6294291 -4.1590271 -1.4450527 1
3.9193687 -4.4912739 -1.4124062 1
4.2434292 -4.8626204 -1.3718015 2
4.6263509 -5.3014174 -1.3256891 2
1.8482659 -2.1314402 -1.673104 1
4.9752312 -5.7374907 -1.2476796 12
1.9385052 -2.2355051 -1.6625136 1
5.0564413 -5.8311429 -1.0847152 6
2.0373051 -2.3494422 -1.6534789 1
5.585629 -6.4414077 -0.99703765 26
2.1321518 -2.4588203 -1.634716 1
6.1773176 -7.1237497 -0.87968671 43
2.2276716 -2.5689747 -1.609501 1
6.5144935 -7.5125842 -0.69533253 7
2.3664572 -2.7290239 -1.6082368 1
2.4942527 -2.876399 -1.5902553 1
6.4539762 -7.4427948 -0.22871917 46
2.6265602 -3.0289776 -1.5655328 2
2.792484 -3.2203226 -1.5514034 1
47.078529 -54.29147 1.6683921 22
2.9518683 -3.4041264 -1.5224763 1
3.145745 -3.6277072 -1.4983101 1
3.3729823 -3.8897595 -1.4763138 1
3.6100078 -4.1630998 -1.4425201 1
3.8963151 -4.4932723 -1.4091784 1
4.221724 -4.8685374 -1.3697224 2
4.6212626 -5.3292894 -1.3290218 2
1.8445534 -2.1391988 -1.6751444 1
4.9463024 -5.7364154 -1.2444372 12
1.9288392 -2.2369485 -1.6595747 1
5.0478983 -5.8542404 -1.0863853 7
2.0330429 -2.3577974 -1.6553569 1
5.5792942 -6.4705205 -0.99912834 28
2.1287785 -2.4688258 -1.6374092 2
6.1456966 -7.1273994 -0.87801468 47
2.2228498 -2.5779238 -1.6112124 1
6.5260611 -7.5685225 -0.69882035 6
2.3504753 -2.7259359 -1.6025425 1
6.3665972 -7.3835859 -0.45465428 6
2.4777744 -2.8735695 -1.5848591 1
2.6168749 -3.0348899 -1.5648053 1
2.7785714 -3.2224152 -1.5486672 1
46.89801 -54.389412 1.6673708 22
2.9423509 -3.4123566 -1.5224763 1
3.1430829 -3.645153 -1.5018846 1
3.3696394 -3.9078994 -1.4796213 1
3.6072121 -4.1834216 -1.4460657 1
3.8951898 -4.5174003 -1.4133284 1
4.2081122 -4.8803082 -1.3697224 2
4.6153464 -5.3525934 -1.331614 2
1.8367045 -2.1436768 -1.6741242 1
4.9256883 -5.748929 -1.2437887 12
1.924071 -2.245645 -1.6615341 1
5.0462341 -5.8896217 -1.0900038 8
2.0233276 -2.3614907 -1.6534789 1
5.5641088 -6.49405 -1.0000576 24
2.1128719 -2.4660008 -1.6311252 1
6.1090231 -7.1300368 -0.87597102 47
2.2206211 -2.5917583 -1.6154907 1
6.5191269 -7.6086826 -0.70063406 7
2.3347671 -2.7249815 -1.5976616 1
2.4711361 -2.8841424 -1.5864009 1
46.562988 -54.345161 -1.6615216 22
2.6121767 -3.0487552 -1.5677153 2
2.76232 -3.2239923 -1.545247 1
63.051018 -73.588867 2.2498691 22
2.9390128 -3.4302163 -1.5263177 1
3.1378267 -3.6622584 -1.5048633 1
3.3661022 -3.9286859 -1.4834803 1
3.5915344 -4.1917949 -1.4450527 1
3.8797126 -4.5281372 -1.4128673 1
4.2067609 -4.9098454 -1.3742963 2
4.5946717 -5.3625889 -1.330503 6
1.830711 -2.1487975 -1.6741242 1
4.8929763 -5.7431321 -1.2395736 15
1.9166616 -2.2496819 -1.6605543 1
5.0374737 -5.9127359 -1.0916739 10
2.021306 -2.3725083 -1.6572348 1
5.5665641 -6.5337558 -1.0037744 22
2.1106136 -2.4773331 -1.634716 1
6.0839224 -7.1410055 -0.87522793 40
2.2063408 -2.5896928 -1.6103567 1
6.5120869 -7.6435633 -0.7021687 5
2.3342578 -2.7398357 -1.6025425 1
2.4702532 -2.8994603 -1.5910261 1
2.6024442 -3.0546193 -1.5669878 2
46.341839 -54.393745 0 21
2.7691505 -3.2502911 -1.5541395 1
2.9245071 -3.432641 -1.5237569 1
3.1288259 -3.6724601 -1.5054591 1
3.3613515 -3.9453871 -1.4862367 1
3.5873427 -4.2106442 -1.4480917 1
3.8708386 -4.5433979 -1.4142506 1
4.2044516 -4.9349761 -1.3780388 2
4.5771289 -5.3724065 -1.3297625 9
1.8243273 -2.1542199 -1.6741242 1
4.859334 -5.7380457 -1.2353585 12
1.9099783 -2.2553592 -1.6605543 1
5.0186286 -5.9261456 -1.0913956 10
2.0051279 -2.3677146 -1.6497232 1
5.5638433 -6.5699511 -1.0067943 22
2.104409 -2.4849486 -1.6356138 1
6.048552 -7.1423097 -0.87318426 43
2.2091615 -2.6086435 -1.6180576 1
6.4958258 -7.6704636 -0.7028662 1
2.3308413 -2.7523267 -1.6057963 1
6.3174076 -7.4597821 -0.45586544 47
2.4616396 -2.9067771 -1.5910261 1
2.5909615 -3.0594842 -1.5655328 2
46.125965 -54.466908 0 21
2.7594945 -3.2584932 -1.5541395 1
2.9216568 -3.4499788 -1.5275983 1
3.1179159 -3.6817274 -1.5054591 1
3.335964 -3.9392052 -1.4801728 1
3.5848372 -4.2330818 -1.4521438 1
3.8686607 -4.5682292 -1.4184008 1
4.1897907 -4.9474292 -1.3780388 2
4.5573583 -5.3814635 -1.3286514 9
1.8197895 -2.1603041 -1.6751444 1
4.8353949 -5.7401824 -1.2330887 12
1.9096838 -2.2670193 -1.6654527 1
5.0030966 -5.9392638 -1.0913956 10
2.0114369 -2.3878121 -1.6600516 1
5.5568614 -6.5966477 -1.0086527 20
2.0978961 -2.4904494 -1.6356138 1
6.0157199 -7.141367 -0.8711406 40
2.2069831 -2.6199484 -1.6214803 1
45.980457 -54.584206 -4.9906573 44
2.3212733 -2.7556245 -1.6041694 1
2.456399 -2.9160345 -1.5925676 1
6.2695093 -7.4426446 -0.22593389 37
2.5877438 -3.0719562 -1.5684427 2
2.7388463 -3.2513325 -1.5472991 1
2.913835 -3.4590647 -1.5282384 1
3.1094964 -3.6913376 -1.5060548 1
3.3380256 -3.9626288 -1.4856855 1
3.5812213 -4.2513309 -1.4551828 1
3.8529263 -4.5738764 -1.4170173 1
4.1831255 -4.9658618 -1.380118 2
4.5521178 -5.4038992 -1.3312436 9
1.8214819 -2.1746087 -1.6822857 1
4.806674 -5.7385335 -1.2298464 12
1.9033457 -2.2723432 -1.6654527 1
4.9953933 -5.9638395 -1.093344 9
2.0013595 -2.3893585 -1.6572348 1
5.5473475 -6.6227999 -1.0102788 20
2.0909333 -2.4962981 -1.6356138 1
5.9804101 -7.1398191 -0.86891121 43
2.2089443 -2.6371877 -1.6283257 1
45.771477 -54.645096 -4.9845185 44
2.3276479 -2.778904 -1.6139311 1
6.1922865 -7.3927717 -0.44971645 1
2.4423215 -2.9158092 -1.5887134 1
2.5863328 -3.0877397 -1.5728077 2
2.7394106 -3.2704942 -1.5527716 1
2.9065979 -3.4700937 -1.529519 1
3.1126611 -3.7161059 -1.5126081 1
3.3294158 -3.9748824 -1.4867879 1
3.5606389 -4.2509322 -1.4516373 1
3.8526349 -4.5995369 -1.4216286 1
4.1755228 -4.9850225 -1.382197 2
4.5483675 -5.4301496 -1.3345764 9
1.8113399 -2.1763539 -1.6792251 1
4.7797847 -5.7429876 -1.2275766 12
1.897313 -2.2796519 -1.6664324 1
4.9817004 -5.9855928 -1.0944574 8
1.9870652 -2.3874905 -1.6516011 1
5.5315971 -6.6463022 -1.0112081 17
2.0887971 -2.5097229 -1.6401023 1
5.9452109 -7.1432662 -0.86705339 40
2.1925535 -2.6343882 -1.622336 1
45.535763 -54.711948 -4.9775429 44
2.3142309 -2.7805855 -1.6106772 1
2.4425933 -2.9348152 -1.5948801 1
45.497803 -54.666336 -1.6512625 22
2.5754278 -3.0944178 -1.57208 2
2.732729 -3.2834175 -1.5548235 1
61.785477 -74.236237 2.2423952 22
2.9041662 -3.4894023 -1.5340006 1
3.0899794 -3.7126596 -1.5072464 1
3.3242908 -3.9941885 -1.4900956 1
3.5645945 -4.282917 -1.4587283 1
3.8443904 -4.6190968 -1.4239341 1
4.1635957 -5.0026269 -1.3834445 4
4.5413442 -5.4564977 -1.3375388 9
1.8041586 -2.1800785 -1.678205 1
4.7511463 -5.7411089 -1.2243342 13
1.8942746 -2.2889712 -1.6693715 1
4.9738054 -6.0101619 -1.0964057 8
1.9848938 -2.3984721 -1.6553569 1
5.5218811 -6.6724367 -1.0128341 16
2.0829198 -2.5169232 -1.6409999 1
5.9087353 -7.1398969 -0.86463821 37
2.1851885 -2.6405008 -1.622336 1
45.324291 -54.768192 -4.9711251 44
2.3052921 -2.7856297 -1.6098638 1
2.4367418 -2.9444685 -1.596422 1
6.1367593 -7.4154325 -0.22347355 5
2.5715277 -3.1073389 -1.57499 1
45.274303 -54.70779 0 21
2.7283423 -3.2968278 -1.5575597 1
61.529488 -74.349953 2.2406311 22
2.9004507 -3.504797 -1.5372016 2
3.0832512 -3.7256866 -1.5090336 1
3.3155756 -4.0064187 -1.4911982 1
3.5612552 -4.3032889 -1.4622738 1
3.8351989 -4.6343122 -1.4253175 1
4.1496096 -5.0142345 -1.3834445 4
4.5298481 -5.473701 -1.3386497 9
1.799868 -2.1880786 -1.6802454 1
4.7265692 -5.7460351 -1.2223887 12
1.8863672 -2.2932346 -1.6683917 1
4.9660168 -6.0371289 -1.0986326 8
1.9788905 -2.4057143 -1.6562958 1
5.5172029 -6.7071996 -1.0156218 17
2.0731723 -2.5203316 -1.6392045 1
5.8862605 -7.1558585 -0.86445242 40
2.1784928 -2.6483686 -1.6231916 1
45.112167 -54.842339 -4.9656844 44
2.3004992 -2.7966902 -1.6123041 1
6.124969 -7.4460535 -0.44962329 45
2.4256499 -2.9488344 -1.5948801 1
2.5670309 -3.1207099 -1.5778999 2
45.054615 -54.772373 0 21
2.7209365 -3.307811 -1.5589278 1
61.256546 -74.468872 2.2387278 22
2.8864281 -3.5089972 -1.5352809 1
3.0806739 -3.7451396 -1.5132039 1
3.307338 -4.0206923 -1.4928521 1
3.5435555 -4.3078594 -1.4602479 1
3.8115418 -4.633647 -1.4216286 1
4.1334715 -5.0250134 -1.3830287 2
4.5235763 -5.4992595 -1.3416121 9
1.7944567 -2.1947415 -1.6812656 1
4.6995053 -5.7478113 -1.2197949 12
1.8729324 -2.2907224 -1.6625136 1
4.9518428 -6.0564375 -1.0994676 8
1.9873924 -2.4307148 -1.669441 1
5.5073366 -6.7358437 -1.0174801 15
2.0690787 -2.5306227 -1.6418977 2
5.8486156 -7.1532512 -0.86203724 43
2.1774907 -2.6632178 -1.6283257 1
44.891148 -54.9049 -4.9592667 44
2.2898779 -2.8006749 -1.6106772 1
2.428571 -2.9703059 -1.6025887 1
2.5636563 -3.1355243 -1.5815372 1
6.1044164 -7.4661126 0 0
2.7111099 -3.31587 -1.5589278 1
60.989754 -74.594582 2.2370565 22
2.8772032 -3.5190134 -1.5359213 1
3.0707562 -3.7557416 -1.5137995 1
3.2953932 -4.030488 -1.4928521 1
3.5393305 -4.3288398 -1.4637934 1
3.8076308 -4.6569891 -1.4253175 1
4.1358795 -5.0584588 -1.3888502 2
4.5109715 -5.5172219 -1.3427231 6
1.7872357 -2.1984088 -1.6802454 1
4.6747217 -5.7501926 -1.2175251 13
1.872028 -2.3027084 -1.667412 1
4.9399085 -6.0763884 -1.1005809 9
1.9716856 -2.4252934 -1.6619295 1
5.5085554 -6.7758589 -1.0211971 22
2.0642588 -2.5391641 -1.6436931 2
5.8147998 -7.1525583 -0.85999358 43
2.1757469 -2.6763012 -1.632604 1
44.694866 -54.977406 -4.9545231 44
2.2832005 -2.808476 -1.6114906 1
44.668404 -54.944859 -3.302206 23
2.4225955 -2.9799402 -1.6041304 1
6.0869503 -7.4873195 -0.22403061 35
2.5525401 -3.1397798 -1.5800824 2
2.7148807 -3.3394687 -1.5664523 1
60.732021 -74.704086 2.2352462 22
2.880513 -3.5432065 -1.5429639 2
3.0590522 -3.7628207 -1.5132039 1
3.2889767 -4.0456419 -1.4950571 1
3.5296695 -4.3417087 -1.4648064 1
3.7995219 -4.6736436 -1.4271619 1
4.1205034 -5.0684705 -1.3884344 2
4.5116649 -5.549623 -1.347537 4
1.7810895 -2.2033911 -1.6802454 1
4.6536832 -5.7570853 -1.2162282 13
1.8677825 -2.3106391 -1.6693715 1
4.9316359 -6.1009412 -1.1025294 9
1.9682355 -2.4349098 -1.6647463 1
5.4933577 -6.7958488 -1.0218939 22
2.0650246 -2.5546479 -1.649977 1
5.7797813 -7.1501842 -0.85776418 47
2.1625826 -2.6753373 -1.6283257 1
44.488487 -55.036839 -4.9486637 44
2.2810917 -2.8219454 -1.615558 1
2.4154246 -2.9881289 -1.6049012 1
2.5425909 -3.1454468 -1.5793548 2
6.0487933 -7.4829803 0 6
2.6949115 -3.3338828 -1.5602959 1
60.457809 -74.792534 2.2328322 22
2.869416 -3.549763 -1.5423236 2
3.0581341 -3.7832267 -1.5179697 1
3.2740402 -4.0503249 -1.4934033 1
3.519964 -4.3545575 -1.4658194 1
3.7864559 -4.6842356 -1.4271619 1
4.1223211 -5.0997357 -1.3938402 2
4.5035634 -5.5713711 -1.3497589 2
1.7766989 -2.2113481 -1.6822857 1
4.6254563 -5.7570214 -1.21331 15
1.8609185 -2.3161709 -1.6693715 1
4.9197145 -6.1232662 -1.1039211 9
1.9532599 -2.4311025 -1.6581737 1
5.486856 -6.8291526 -1.0244492 20
2.0563164 -2.5593708 -1.6490793 1
5.7498097 -7.156435 -0.85646373 43
2.1602964 -2.6887882 -1.632604 1
44.273758 -55.104828 -4.9429436 44
2.2658429 -2.8201554 -1.6106772 1
2.3996129 -2.9866507 -1.6002762 1
44.215878 -55.032784 -1.6390072 22
2.5402482 -3.1616907 -1.5837197 1
2.6920705 -3.3506548 -1.5644002 1
60.198063 -74.924828 2.2314396 22
2.8731117 -3.5759857 -1.5500064 2
3.0492873 -3.7952604 -1.5191613 1
3.2571919 -4.0540266 -1.4911982 1
3.5070283 -4.3649826 -1.4658194 1
3.7761977 -4.7000012 -1.4285452 1
4.1132979 -5.1195693 -1.3959192 2
4.4956298 -5.5954342 -1.352351 2
1.7675967 -2.2142298 -1.6802454 1
4.6073475 -5.771524 -1.21331 16
1.8568963 -2.3260937 -1.6723106 1
4.9041605 -6.1433349 -1.1047561 9
1.9533248 -2.4468875 -1.6647463 1
5.4653749 -6.8463559 -1.0244492 17
2.0471509 -2.5644212 -1.6481816 1
5.6999674 -7.1402254 -0.85237646 58
2.1540942 -2.6983869 -1.6343153 1
44.045658 -55.175037 -4.9368052 22
2.2581117 -2.8286874 -1.6114906 1
2.3925207 -2.9970589 -1.6018178 1
2.530303 -3.1696556 -1.5837197 1
43.968544 -55.078438 0 21
2.6838756 -3.3620327 -1.5657681 1
59.937439 -75.082321 2.2305112 22
2.8476784 -3.567225 -1.5423236 2
3.0337756 -3.8003449 -1.517374 1
3.2612317 -4.0852737 -1.498916 1
3.5029547 -4.3880754 -1.4698714 1
3.7626278 -4.7133622 -1.4290065 1
4.0923123 -5.1263504 -1.3942559 2
4.4890647 -5.623354 -1.3556838 2
1.772101 -2.2326314 -1.6904472 1
4.5777159 -5.7673645 -1.2097434 13
1.8514773 -2.3326359 -1.6732901 1
4.8943734 -6.1663141 -1.1064262 9
1.9431907 -2.4481835 -1.6619295 1
5.4548788 -6.8724828 -1.0260754 16
2.044426 -2.5757275 -1.6517724 1
5.6874337 -7.1654735 -0.85349119 44
2.1409314 -2.6973126 -1.630037 1
5.8755884 -7.4025259 -0.66087282 2
2.2626987 -2.8507245 -1.6204388 1
5.9419184 -7.4860935 -0.44571027 30
2.3921733 -3.0138469 -1.6072137 1
2.5237582 -3.1796277 -1.5851747 1
43.772285 -55.147747 0 21
2.6698031 -3.3636265 -1.563032 1
59.682777 -75.193024 2.2288399 22
2.853019 -3.5944562 -1.5506467 2
3.0326467 -3.8207653 -1.52214 1
3.2486155 -4.0928597 -1.4983648 1
3.4967012 -4.4054174 -1.4724039 1
3.7724385 -4.7528129 -1.4377676 1
4.0901432 -5.1530819 -1.3984141 2
4.4782314 -5.6420255 -1.357165 2
1.7658595 -2.2375712 -1.6904472 1
4.5518117 -5.7677312 -1.2071495 13
1.8503571 -2.3446405 -1.6781886 1
4.8808155 -6.1846218 -1.1072613 9
1.9418163 -2.4605312 -1.6666242 1
5.4467421 -6.9017234 -1.0281661 17
2.0405467 -2.5856352 -1.6544654 1
5.6513643 -7.161006 -0.85107601 31
2.1345105 -2.7046995 -1.6308926 1
5.8338823 -7.3922801 -0.65850115 14
2.2479377 -2.8484263 -1.615558 1
2.3837476 -3.020515 -1.6072137 1
5.8985763 -7.4742556 -0.22105962 38
2.5102525 -3.1808131 -1.5822649 2
2.669714 -3.3828714 -1.5685045 1
2.8488393 -3.6098461 -1.5538478 2
3.0207825 -3.8277202 -1.5215443 1
3.2490835 -4.1170073 -1.5038775 1
3.483187 -4.4136462 -1.4718974 1
3.754329 -4.7572184 -1.4359232 1
4.0817966 -5.1721616 -1.4004933 2
4.4758515 -5.6714802 -1.3612382 2
1.7585424 -2.2411404 -1.6894271 1
4.5247231 -5.7664461 -1.2042313 15
1.8394971 -2.3443115 -1.6742699 1
4.870862 -6.2075763 -1.1089313 9
1.9458389 -2.4798367 -1.6760136 1
5.4470687 -6.9419117 -1.0318829 18
2.0344219 -2.5927296 -1.6553632 1
5.6264281 -7.1704926 -0.85033286 36
2.1247175 -2.7078052 -1.6291813 1
2.2433586 -2.859005 -1.6179985 1
5.8235526 -7.4217143 -0.43993393 1
2.3753037 -3.0271599 -1.6072137 1
2.5117109 -3.2010016 -1.588812 1
2.6602571 -3.3903134 -1.5685045 1
2.8340695 -3.611825 -1.5512869 2
3.0159748 -3.8436508 -1.524523 1
3.2411346 -4.1306014 -1.5055313 1
3.4851809 -4.4416218 -1.4779755 1
3.7506411 -4.7799325 -1.4396123 1
4.0745835 -5.1927738 -1.4029882 2
4.4587836 -5.6824107 -1.360868 4
1.7561166 -2.2517743 -1.6935078 1
4.5051661 -5.7767334 -1.2035828 16
1.8368224 -2.3552589 -1.6781886 1
4.8548584 -6.2251244 -1.1094881 10
1.9276127 -2.4716744 -1.6666242 1
5.4337769 -6.9674406 -1.0332767 22
2.0245218 -2.5959358 -1.6535678 1
5.5941067 -7.1730227 -0.84866083 44
2.1277907 -2.7283521 -1.6377379 1
5.7740321 -7.4037323 -0.65654796 38
2.2371128 -2.8685298 -1.6196253 1
2.3685815 -3.0371051 -1.6087555 1
43.150913 -55.330105 -1.629073 22
2.5033479 -3.209909 -1.5895396 1
2.6559651 -3.4056015 -1.5719246 1
2.8349924 -3.6351588 -1.5576892 2
3.0104277 -3.86011 -1.5275018 1
3.2371407 -4.1508121 -1.5093902 1
3.4755566 -4.4565201 -1.479495 1
3.7352452 -4.7895045 -1.439151 1
4.0591578 -5.2048407 -1.4029882 2
4.4431124 -5.697165 -1.3612382 4
1.7441585 -2.2501767 -1.6884068 1
4.4795437 -5.7791562 -1.2013131 15
1.8191441 -2.3469172 -1.6683917 1
4.8412204 -6.2457628 -1.1106014 12
1.9235162 -2.4815698 -1.669441 1
5.4264669 -7.000802 -1.0358319 22
2.0124311 -2.5962808 -1.649977 1
5.5545001 -7.1659808 -0.84587407 65
2.1108267 -2.7232234 -1.6308926 1
5.738595 -7.4034858 -0.65501326 44
2.2218761 -2.8664904 -1.6147445 1
2.3606904 -3.0455778 -1.6095263 1
5.7620821 -7.4337869 -0.21836716 5
2.493813 -3.2173221 -1.5895396 2
42.936878 -55.393795 0 21
2.6481516 -3.4164379 -1.5732927 1
5.7755566 -7.4511704 0.21887781 0
2.8137472 -3.6300762 -1.5519271 2
3.0001311 -3.8705342 -1.5280975 1
3.2212772 -4.1558394 -1.5077364 1
3.4587626 -4.4622245 -1.4779755 1
3.7222106 -4.8021045 -1.4396123 1
4.0544839 -5.2307773 -1.4067307 2
4.434618 -5.7211967 -1.3638304 4
1.7395738 -2.2580674 -1.6904472 1
4.4515362 -5.7783513 -1.1983949 13
1.8185571 -2.3605924 -1.6742699 1
4.8226666 -6.2601004 -1.1106014 12
1.9193776 -2.4914629 -1.6722579 1
5.4165821 -7.0310364 -1.0379227 22
2.0101721 -2.6093197 -1.6544654 1
5.5283518 -7.1761198 -0.84513092 53
2.1082535 -2.7366347 -1.6351709 1
5.7044272 -7.404676 -0.65361822 44
2.2300866 -2.8947811 -1.6269466 1
5.753603 -7.4685092 -0.43965444 41
2.3538959 -3.0554931 -1.611068 1
2.4853928 -3.2261834 -1.5902671 2
42.73571 -55.473419 0 21
2.6414437 -3.4287467 -1.5753448 1
5.7168155 -7.4207573 0.21748517 3
2.8099022 -3.6474154 -1.5557685 2
2.9828079 -3.8718569 -1.5251188 1
3.2136257 -4.1714716 -1.5099415 1
3.4525919 -4.4816637 -1.4810144 1
3.7091334 -4.8146696 -1.4400733 1
4.0461087 -5.2520828 -1.4092256 2
4.4212213 -5.7390003 -1.3649414 4
1.736004 -2.2673163 -1.6935078 1
4.4295735 -5.7852659 -1.197098 15
1.8200254 -2.377053 -1.6821073 1
4.8197246 -6.2948246 -1.1142199 12
1.9066094 -2.4901364 -1.6675632 1
5.4113965 -7.0675802 -1.0409427 20
2.0035081 -2.6166916 -1.6553632 1
5.496141 -7.1782613 -0.84345889 48
2.1023226 -2.7457485 -1.6368823 1
5.6715159 -7.407311 -0.65236253 44
2.2181559 -2.8970332 -1.6245062 1
2.3481858 -3.0668592 -1.6133806 1
2.4792075 -3.2379811 -1.5924495 2
42.542969 -55.56345 0 21
2.6301165 -3.4350762 -1.5746607 1
2.7956123 -3.6512229 -1.5538478 2
2.9817526 -3.8943324 -1.5304805 1
3.2000659 -4.1794615 -1.5093902 1
3.4404562 -4.4934244 -1.481521 1
3.7090292 -4.8441954 -1.4456067 1
4.0435905 -5.2811508 -1.4137996 2
4.4053693 -5.753654 -1.3653116 6
1.7307076 -2.273524 -1.694528 1
4.4062285 -5.7881908 -1.1951525 15
1.8123242 -2.3807387 -1.6811275 1
4.8105245 -6.3192902 -1.1161684 12
1.9039266 -2.5010712 -1.6713189 1
5.4072804 -7.1032114 -1.0439626 20
2.0037708 -2.6322303 -1.6616471 1
5.4676299 -7.1824889 -0.84215832 48
2.0957415 -2.7530468 -1.6377379 1
5.6411409 -7.4104199 -0.65124643 41
2.2200174 -2.9163003 -1.6318275 1
42.352512 -55.635891 -3.260747 23
2.3329053 -3.0645943 -1.6087555 1
5.7127357 -7.5044694 -0.21897064 35
2.4667704 -3.2404444 -1.5902671 2
2.6170986 -3.4379213 -1.5726086 1
2.8026204 -3.6816299 -1.5634514 2
2.9778049 -3.9117589 -1.534055 1
3.1895468 -4.1899114 -1.5099415 1
3.4267225 -4.5014749 -1.4810144 1
3.7013807 -4.8622761 -1.4479123 1
4.0323815 -5.2970915 -1.415047 2
4.3940468 -5.7721891 -1.3667929 11
1.7253901 -2.2797198 -1.6955481 1
4.3840923 -5.7926049 -1.1935314 16
1.8046166 -2.3844001 -1.6801479 1
4.8060069 -6.350071 -1.1192303 11
1.9033291 -2.5148268 -1.6769526 1
5.4042072 -7.1404595 -1.0472147 20
1.9942553 -2.6349657 -1.6598517 1
5.4331307 -7.1786761 -0.83992898 44
2.0913184 -2.7632129 -1.6403049 1
5.6095886 -7.4118257 -0.64999086 44
2.197531 -2.9035492 -1.6212524 1
2.3310206 -3.0799263 -1.6133806 1
2.462209 -3.2532625 -1.593177 2
5.6788077 -7.5032835 0 9
2.6165614 -3.4572048 -1.578081 1
2.7843242 -3.6788661 -1.5589697 2
2.9622607 -3.9139698 -1.531672 1
3.1905963 -4.2156644 -1.5160056 1
3.4316533 -4.5341678 -1.4886119 1
3.6913118 -4.8772488 -1.4492956 1
4.0199351 -5.3114514 -1.4158788 2
4.3719797 -5.7766008 -1.3649414 15
1.7231543 -2.2900276 -1.6996289 1
4.3631525 -5.7985172 -1.1922344 16
1.8031927 -2.3963966 -1.6850462 1
4.7953997 -6.3729625 -1.1209003 11
1.8984222 -2.5229542 -1.6788305 1
5.3890224 -7.1618719 -1.048144 22
1.9804417 -2.6319559 -1.6544654 1
5.4034839 -7.1810904 -0.83844262 53
2.080333 -2.7647088 -1.6377379 1
5.5840702 -7.4210854 -0.64943278 38
2.1916108 -2.9125943 -1.6228793 1
2.3257394 -3.0908477 -1.6156931 1
41.914383 -55.703129 -1.6184889 22
2.4631956 -3.2735233 -1.5997243 2
2.6102867 -3.4690034 -1.5801331 1
5.5829735 -7.4196277 0.21558188 78
2.7603691 -3.6684592 -1.5512869 2
2.953615 -3.9252779 -1.5328636 1
3.1811228 -4.2276301 -1.5171081 1
3.4154878 -4.5390949 -1.4870925 1
3.6811876 -4.8922033 -1.4506791 1
4.021554 -5.3445415 -1.4217002 2
4.335742 -5.7620893 -1.3586462 13
1.7132616 -2.2909975 -1.6965684 1
4.3447471 -5.8098569 -1.1919101 16
1.7950305 -2.4003398 -1.6840667 1
4.778842 -6.3903346 -1.121457 11
1.8909283 -2.5285759 -1.6788305 1
5.3487148 -7.1523767 -1.0444272 28
1.9790459 -2.6464081 -1.6598517 1
5.3809609 -7.1954966 -0.8382569 36
2.0699556 -2.7679737 -1.6360266 1
5.5560527 -7.4296317 -0.64873517 26
2.1917131 -2.9307895 -1.629387 1
2.314348 -3.0947788 -1.6141514 1
2.4467778 -3.2718656 -1.5953593 2
5.5696201 -7.4477739 0 3
2.5954802 -3.4707127 -1.5773968 1
5.5549479 -7.4281545 0.21534978 78
2.759685 -3.6902895 -1.557049 2
2.9511027 -3.9462559 -1.5376295 1
3.1743226 -4.2447486 -1.5198646 1
3.4066401 -4.555407 -1.4891185 1
3.6759801 -4.9155722 -1.4543679 1
4.0091939 -5.3611503 -1.4229478 2
4.3092103 -5.7623363 -1.3556838 13
1.7091333 -2.3005109 -1.6996289 1
4.3335352 -5.8329825 -1.1938555 13
1.7916399 -2.4115658 -1.6879853 1
4.7670102 -6.4164448 -1.1234053 11
1.8787626 -2.5288339 -1.6750746 1
5.3179259 -7.1579828 -1.042801 34
1.9707221 -2.6526122 -1.6598517 1
5.3618922 -7.2171617 -0.83881426 30
2.0644836 -2.7788162 -1.6385936 1
5.5410132 -7.4582605 -0.64971179 10
2.1792259 -2.9332607 -1.6269466 1
5.5699596 -7.4972229 -0.43555507 44
2.3112175 -3.1109226 -1.6187764 1
2.4409308 -3.2855182 -1.5982692 2
2.5901678 -3.4863925 -1.5808171 1
5.5184674 -7.4279137 0.21483913 75
2.7605073 -3.7156713 -1.5640916 2
2.9421062 -3.9601052 -1.5394168 1
3.1609714 -4.2547002 -1.5198646 1
3.4003887 -4.5769582 -1.492664 1
3.6581979 -4.9239721 -1.4534458 3
3.9958313 -5.3784299 -1.4241952 4
4.2899137 -5.7742682 -1.3553134 15
1.6975923 -2.2983561 -1.694528 1
4.3254371 -5.856173 -1.1961253 7
1.7869705 -2.4193645 -1.6899446 1
4.7514272 -6.4329176 -1.123962 11
1.8685461 -2.529809 -1.6722579 1
5.2920156 -7.1648154 -1.0416396 33
1.9664927 -2.6624179 -1.6625448 1
5.3582807 -7.2545314 -0.84141523 25
2.0534937 -2.7802081 -1.6360266 1
5.513052 -7.4640751 -0.6488747 5
2.1786253 -2.9496224 -1.6326411 1
2.299232 -3.112911 -1.6164639 1
5.5202742 -7.4738526 -0.21572115 42
2.4317467 -3.2923214 -1.5982692 1
2.5848885 -3.4996588 -1.5835532 1
5.4858241 -7.4272118 0.21437491 75
2.7478695 -3.7203176 -1.5628111 2
2.9310362 -3.9683056 -1.5394168 1
3.1525044 -4.2681494 -1.5215183 1
3.3898938 -4.5895486 -1.493677 1
3.6490586 -4.9404297 -1.4552902 3
3.9842834 -5.3942881 -1.4254427 9
4.2445803 -5.7467017 -1.3460559 13
1.6956431 -2.3083379 -1.6986086 1
4.319438 -5.8802013 -1.1987193 9
1.7765017 -2.4184136 -1.686026 1
4.7427769 -6.4565077 -1.1259104 11
1.8692348 -2.5446544 -1.6788305 1
5.2697124 -7.1738429 -1.0409427 34
1.9542254 -2.6603551 -1.6580564 1
5.3439851 -7.2749529 -0.84215832 27
2.0494189 -2.7899454 -1.6385936 1
2.1676507 -2.9508984 -1.6302006 1
41.119179 -55.976971 -3.2390392 47
2.2965372 -3.1263561 -1.6203181 1
5.520812 -7.5156732 -0.2165103 7
2.4264278 -3.3031809 -1.6004517 2
2.5890691 -3.5245898 -1.5917617 1
5.454524 -7.4254336 0.2139107 75
2.7482157 -3.7412417 -1.5685731 2
2.9240282 -3.9805815 -1.541204 1
3.142458 -4.2779374 -1.5220696 1
3.3870304 -4.6108823 -1.4977291 1
3.6464813 -4.9640818 -1.4594404 1
3.9631987 -5.3952403 -1.4229478 9
4.2225394 -5.7482901 -1.343834 13
1.6877722 -2.3119695 -1.6975884 1
4.3170991 -5.9137139 -1.2029344 9
1.7703462 -2.4250822 -1.6870056 1
4.7317729 -6.4817491 -1.1278589 12
1.8658412 -2.5558946 -1.6825862 1
5.2343483 -7.1701941 -1.0381551 31
1.9505383 -2.6719158 -1.6616471 1
5.3540788 -7.3342047 -0.84717458 21
2.0453954 -2.8018544 -1.6420163 1
5.4406934 -7.4528527 -0.64524734 41
2.1621175 -2.9617443 -1.6326411 1
2.2828984 -3.1271944 -1.6172347 1
2.4188132 -3.3133752 -1.6019068 1
5.445724 -7.459744 0 88
2.5730591 -3.5246665 -1.5883415 1
5.4265733 -7.4335103 0.2136786 78
2.7292826 -3.738667 -1.5640916 2
2.916707 -3.9954078 -1.543587 1
3.1342852 -4.2934537 -1.5242747 1
3.374475 -4.6224742 -1.4982356 1
3.6328835 -4.9764514 -1.4599013 1
3.959861 -5.4243565 -1.4275218 9
4.1996708 -5.7528563 -1.3419825 15
1.6819154 -2.3183594 -1.6986086 1
4.3122821 -5.9440684 -1.206501 12
1.755976 -2.4204447 -1.6801479 1
4.7194996 -6.5053782 -1.129529 11
1.8592867 -2.5628486 -1.6835252 1
5.2013865 -7.1696134 -1.0358319 30
1.9447011 -2.6805844 -1.6634425 1
5.3474965 -7.3710117 -0.84958977 21
2.0338886 -2.8035207 -1.6394492 1
5.4244151 -7.4770374 -0.64594495 32
2.1576121 -2.9740617 -1.6358949 1
2.2779448 -3.1399288 -1.6203181 1
40.669319 -56.058765 -1.607951 44
2.4166298 -3.3310928 -1.606999 1
5.4129977 -7.4612989 0 87
2.5581758 -3.5262005 -1.5856054 1
5.3915792 -7.431776 0.21316795 78
2.7359803 -3.771287 -1.5743353 2
2.9025979 -4.0009537 -1.5423956 1
3.1237907 -4.3058467 -1.5253773 1
3.3527923 -4.6215034 -1.4946901 1
3.6261022 -4.9982347 -1.4631292 1
3.9460471 -5.4392481 -1.4283534 9
4.1802754 -5.7621098 -1.3412418 15
1.676441 -2.3244424 -1.6996289 1
4.2991295 -5.9608893 -1.2074738 13
1.7614493 -2.4423094 -1.6919041 1
4.7105823 -6.5313826 -1.1317557 11
1.8552214 -2.5723276 -1.686342 1
5.1674008 -7.1647768 -1.0330443 30
1.935117 -2.6831055 -1.6616471 1
5.346694 -7.413373 -0.85274804 22
2.0271091 -2.8106558 -1.6403049 1
2.1567798 -2.9904487 -1.6415892 1
2.2637701 -3.1387939 -1.6164639 1
2.4040489 -3.3332953 -1.6048166 1
5.379271 -7.4585423 0 87
2.561511 -3.5516222 -1.5938139 1
5.362617 -7.4354506 0.212843 75
2.7154629 -3.7650816 -1.5685731 2
2.8958809 -4.0152373 -1.5447786 1
3.1083806 -4.3098755 -1.5237234 1
3.3466642 -4.640264 -1.4977291 1
3.6121302 -5.0083413 -1.4631292 3
3.938853 -5.4613538 -1.4312642 9
4.150372 -5.754632 -1.3367982 15
1.6731378 -2.3352911 -1.7037096 1
4.2803817 -5.9743657 -1.2074738 13
1.7476749 -2.4393268 -1.686026 1
4.6946545 -6.5525894 -1.1328691 10
1.8409601 -2.56953 -1.6807083 1
5.1460238 -7.18259 -1.0332767 28
1.9360464 -2.7022471 -1.6697265 1
5.3001823 -7.397758 -0.84903234 33
2.0309033 -2.8346441 -1.6505729 1
40.313606 -56.267933 -4.8402619 44
2.1431181 -2.9912686 -1.6383353 1
5.3872323 -7.5192585 -0.43136257 36
2.2603469 -3.1548915 -1.621089 1
2.3946502 -3.342346 -1.605544 1
5.3453302 -7.460773 0 87
2.5372059 -3.5413189 -1.5856054 1
5.3275871 -7.436008 0.2123788 75
2.7080355 -3.7797549 -1.5711342 2
2.8943717 -4.039835 -1.5507361 1
3.1037829 -4.3321214 -1.5281335 1
3.339958 -4.6617641 -1.5012746 1
3.5963783 -5.0196643 -1.4631292 1
3.9307911 -5.486423 -1.4345907 9
4.1299839 -5.7644467 -1.3360577 15
1.662618 -2.3343496 -1.6996289 1
4.268261 -5.9927258 -1.2087706 12
1.7449023 -2.4498785 -1.6899446 1
4.6889768 -6.5834193 -1.135931 9
1.8419732 -2.5861681 -1.6882199 1
5.1201839 -7.1888428 -1.0321152 34
1.9243454 -2.7018204 -1.6661355 1
5.3326449 -7.4871426 -0.8575784 21
2.0187845 -2.8344147 -1.6471502 1
5.2976151 -7.4379601 -0.63855076 4
2.1347566 -2.997242 -1.6383353 1
2.2525985 -3.1626945 -1.6218598 1
5.3392797 -7.4964576 -0.2136786 47
2.3874688 -3.3520551 -1.606999 2
5.3163528 -7.4642682 0 87
2.5338485 -3.5575752 -1.5897096 1
5.2986813 -7.4394569 0.21205385 78
2.6941724 -3.7826731 -1.5692135 2
2.8775411 -4.0401263 -1.5477573 1
3.0994802 -4.3517337 -1.5319924 1
3.325804 -4.669497 -1.5007681 1
3.5902498 -5.0407844 -1.466357 1
3.9199946 -5.5037527 -1.4362541 9
4.107029 -5.7663527 -1.3338358 15
1.660069 -2.3445992 -1.7037096 1
4.260633 -6.0175066 -1.2113645 12
1.738054 -2.4547415 -1.6899446 1
4.6785851 -6.6078019 -1.1378794 8
1.8327032 -2.5884194 -1.686342 1
5.0886097 -7.1869001 -1.0297921 24
1.9198912 -2.7115593 -1.6688287 1
5.3312783 -7.5296335 -0.86073679 21
2.0160844 -2.8474178 -1.6514285 3
2.1232109 -2.9987178 -1.6358949 1
39.902786 -56.356716 -3.2202196 47
2.2501566 -3.1780097 -1.626485 1
2.3834815 -3.3663113 -1.6106364 1
5.2873979 -7.467659 0 90
2.5347643 -3.5799756 -1.59655 1
5.2674866 -7.439537 0.21163604 78
2.6868832 -3.7948205 -1.5711342 2
2.8717639 -4.0559373 -1.5507361 1
