# .PCD v0.7 - Point Cloud Data file format
VERSION 0.7
FIELDS x y z intensity
SIZE 4 4 4 4
TYPE F F F F
COUNT 1 1 1 1
WIDTH 1436
HEIGHT 1
VIEWPOINT 0 0 0 1 0 0 0
POINTS 1436
DATA ascii
2.5249481 2.3039789 -1.1549821 13
14.104005 12.869702 0.8903957 18
2.5399783 2.3176937 -1.0729449 16
14.040727 12.811962 1.3291398 24
2.5505896 2.3273764 -0.99008948 12
64.266235 58.642021 8.1167126 21
2.5583029 2.3344147 -0.90664017 11
65.712288 59.961521 10.402922 53
2.5718272 2.3467555 -0.8249411 10
66.35453 60.547558 12.624393 52
2.6763196 2.4421034 -0.770105 6
4.8230033 4.4009218 -1.2301507 2
2.067013 1.8742537 -1.6547407 16
5.2515354 4.7618036 -1.1646739 1
2.1532404 1.95244 -1.6331233 10
5.730844 5.1964145 -1.0872203 1
2.2657731 2.0544784 -1.6262497 10
6.3425136 5.7510424 -1.0012192 1
2.3156331 2.0996888 -1.5700815 11
7.0544195 6.3965602 -0.8884185 6
2.3555915 2.1359208 -1.5051103 12
8.1171751 7.360208 -0.76620507 0
2.3957253 2.172312 -1.4398478 13
9.5193634 8.6316357 -0.59924924 0
2.4458132 2.2177291 -1.3790433 16
2.7743061 2.5155883 -0.08694765 1
2.4897368 2.2575564 -1.3123704 16
2.7528293 2.4961143 0 12
2.5283387 2.2925587 -1.2422172 11
2.7343132 2.4793248 0.085694261 16
2.5434024 2.3062177 -1.1601039 12
14.126605 12.809229 0.88927764 18
2.5514898 2.3135507 -1.0747322 15
14.055779 12.745008 1.3267682 27
2.5664334 2.3271008 -0.99339706 15
2.57709 2.3367636 -0.91069221 11
66.162277 59.992317 10.444272 53
2.587837 2.3465083 -0.82770783 10
66.569344 60.36142 12.629125 52
2.6796305 2.4297416 -0.76885748 6
4.8426285 4.3910294 -1.2316319 2
2.0684066 1.8650178 -1.6516801 18
5.2633481 4.7457967 -1.1643496 1
2.1573899 1.9452512 -1.6321437 9
5.7468057 5.1817155 -1.0874988 1
2.2649446 2.0422297 -1.621555 10
6.3482232 5.7239947 -0.9995929 1
2.3321068 2.102788 -1.5772631 12
7.0515518 6.3581643 -0.88581753 14
2.3615475 2.1293337 -1.5051103 12
8.1214008 7.3228135 -0.76467049 0
2.4058537 2.1692832 -1.4422883 13
2.7760828 2.5031071 -0.1743152 3
2.45748 2.2158329 -1.3821268 16
2.7590463 2.487746 -0.086251318 11
2.5029502 2.2568319 -1.3160079 17
2.7479072 2.4777021 0 15
2.5375233 2.2880054 -1.2435852 9
2.7323172 2.4636452 0.085415728 20
2.5554624 2.3041806 -1.1626649 13
14.128199 12.738955 0.88713485 18
2.5664487 2.3140867 -1.0783067 12
14.07502 12.691006 1.3252335 24
2.5829175 2.3289361 -0.99725604 13
65.053825 58.657001 8.1720762 21
2.5893538 2.3347394 -0.91271818 12
66.258751 59.74345 10.433121 53
2.6044977 2.3483942 -0.83093566 10
66.762672 60.197819 12.633857 52
2.6922176 2.4274886 -0.77052081 7
4.8417363 4.3656425 -1.228299 2
2.075212 1.8600211 -1.6527004 16
5.2685876 4.7222571 -1.1624042 1
2.1670468 1.9423331 -1.6350827 9
5.7474051 5.151423 -1.0847152 1
2.2670486 2.031965 -1.6187381 9
6.353343 5.6945281 -0.99773455 1
2.3449893 2.1018238 -1.5817516 12
7.0585213 6.326582 -0.88433129 16
2.3786237 2.1319704 -1.5119555 12
2.7841911 2.4954822 -0.26144725 8
2.4231637 2.1718917 -1.448796 13
2.4681659 2.2122273 -1.3844393 14
2.763437 2.4768803 -0.086158477 17
2.5110219 2.2506394 -1.3167353 17
2.7552459 2.4695385 0 18
2.5568957 2.2917564 -1.2497417 11
2.7351477 2.4515243 0.08527647 23
2.5735748 2.306706 -1.1677867 12
14.154029 12.686316 0.88638955 15
2.5818331 2.3141079 -1.0818812 13
14.158667 12.690473 1.3295584 24
2.5984054 2.3289616 -1.0005636 12
65.266106 58.498287 8.1769056 21
2.6005917 2.3309212 -0.91423774 12
2.6158011 2.3445535 -0.83231902 10
2.6877532 2.4090445 -0.76719421 6
2.081682 1.8553637 -1.6537205 14
5.2905927 4.7154055 -1.1643496 1
2.1659536 1.9304737 -1.6301843 9
5.754375 5.1287656 -1.0833235 1
2.2713954 2.0244517 -1.617799 9
2.8338952 2.5257974 -0.443928 4
2.3588545 2.1024024 -1.5871378 12
2.8037055 2.4988897 -0.35038841 11
2.3845677 2.1253202 -1.5119555 12
2.7851908 2.482388 -0.26088923 12
2.4292188 2.165117 -1.448796 11
2.7829952 2.4804311 -0.17384936 21
2.4812222 2.2114666 -1.3882935 13
2.7658648 2.465163 -0.086019211 19
2.5270321 2.252296 -1.3218277 13
2.7546659 2.4551816 0 23
2.5674942 2.2883589 -1.2517937 13
2.7389972 2.4412165 0.08518362 24
2.5842495 2.3032928 -1.1697075 12
14.259497 12.70922 0.89076841 15
2.5968368 2.3145115 -1.0854557 16
14.232774 12.685402 1.3331858 36
2.606334 2.3229761 -1.001115 10
65.383125 58.274742 8.1711473 21
2.6143122 2.3300869 -0.91677022 12
64.823685 57.776123 10.154592 51
2.6339602 2.347599 -0.83600795 10
2.6930094 2.4002285 -0.76677841 6
4.857995 4.3298392 -1.2260772 2
2.0855672 1.8484027 -1.6527004 12
5.2934003 4.6914506 -1.1620799 1
2.1674213 1.9209485 -1.6272453 9
2.8369069 2.5143023 -0.53275466 7
2.2783611 2.0192726 -1.6187381 10
2.8126912 2.4928403 -0.43951428 8
2.372741 2.1029198 -1.5925239 11
2.8076916 2.4884093 -0.35001683 23
2.3945515 2.1222501 -1.5145226 12
2.7906187 2.4732778 -0.2607497 15
2.4407244 2.1631725 -1.4520499 11
2.7809401 2.4646997 -0.17329037 18
2.4956744 2.2118735 -1.3929186 14
2.7652559 2.4507992 -0.085787103 21
2.5388885 2.2501736 -1.3247375 16
2.7540271 2.4408472 0 23
2.5823131 2.28866 -1.255898 13
2.7413144 2.4295802 0.085044362 24
2.6005969 2.3048649 -1.1741891 13
14.360715 12.727657 0.89486772 13
2.6118624 2.3148491 -1.0890301 16
14.336822 12.706481 1.3396033 24
2.6200042 2.3220651 -1.0038713 10
2.6237042 2.3253443 -0.9177832 10
64.837585 57.464447 10.131594 51
2.6448748 2.3441074 -0.83739132 10
2.6997013 2.3926992 -0.76677841 6
2.8623223 2.5368276 -0.72061199 1
2.0884612 1.8399315 -1.6506599 9
2.8461573 2.5074606 -0.6231913 8
2.1744201 1.9156612 -1.628225 9
2.8265221 2.4901621 -0.52941453 11
2.289643 2.0171726 -1.6224937 10
2.820076 2.484483 -0.43951428 15
2.3789706 2.0958698 -1.5925239 9
2.8090866 2.4748013 -0.34927371 24
2.4049077 2.1187205 -1.5170896 12
2.7934544 2.4610295 -0.26033115 15
2.4539874 2.1619594 -1.4561173 11
2.7777481 2.4471922 -0.17263819 18
2.5049963 2.2068985 -1.3944603 14
2.7665153 2.4372962 -0.085601419 21
2.5553396 2.2512505 -1.3298299 13
2.7522538 2.4247317 0 23
2.5947335 2.2859566 -1.2586341 11
2.7425106 2.4161482 0.084858671 24
2.6131117 2.3021479 -1.1767501 13
14.450886 12.731211 0.89812857 11
2.6258826 2.3133991 -1.0920088 15
14.434344 12.716638 1.3451838 34
2.6413083 2.3269892 -1.009384 12
67.433014 59.408398 8.3844271 21
2.6407552 2.3265018 -0.92132878 10
64.934784 57.207455 10.120211 51
2.6649611 2.347827 -0.84154135 10
2.7155969 2.3924372 -0.76927334 7
2.8462417 2.507535 -0.71468711 9
2.0942309 1.8333619 -1.6506599 6
2.8465955 2.4920077 -0.62157011 13
2.1791155 1.9076726 -1.6272453 10
2.8328409 2.4799664 -0.52913618 13
2.289325 2.004154 -1.617799 9
2.8218882 2.4703782 -0.43858507 17
2.3909218 2.0930953 -1.5961149 11
2.807857 2.4580948 -0.34815902 24
2.4169922 2.1159182 -1.5205121 12
2.7936659 2.4456713 -0.2596336 15
2.4635165 2.156647 -1.4577441 11
2.7824156 2.4358225 -0.17245185 18
2.5174708 2.2038805 -1.3975437 14
2.774158 2.4285934 -0.085601419 22
2.5623989 2.2432122 -1.3298299 16
2.7643719 2.4200263 0 25
2.6075583 2.2827463 -1.2613703 13
2.7425649 2.4009359 0.084626563 27
2.6260333 2.2989199 -1.179311 14
2.7478421 2.4055555 0.17030902 5
2.644629 2.3151994 -1.0967748 13
14.552281 12.739569 1.3524384 25
2.6601779 2.3288112 -1.0137943 12
2.6626084 2.3309391 -0.92639381 12
64.976669 56.882812 10.09884 50
2.6811092 2.3471353 -0.84430808 10
2.7186832 2.380029 -0.76802588 7
2.8541048 2.4985816 -0.71468711 11
2.0980456 1.8263763 -1.6496398 5
2.8431244 2.4749773 -0.61930043 14
2.1844347 1.9015791 -1.6272453 13
2.839756 2.4720449 -0.52913618 13
2.2962453 1.9989119 -1.6187381 9
2.8242817 2.4585743 -0.43788818 16
2.3927143 2.0828893 -1.5934217 11
2.8026953 2.4397831 -0.34667271 26
2.4269824 2.1127203 -1.5230792 12
2.7929611 2.4313095 -0.25893602 15
2.4764202 2.1557565 -1.4618115 11
2.7846868 2.4241066 -0.17217235 21
2.527792 2.2004762 -1.3998562 14
2.7764053 2.4168975 -0.085462153 22
2.5700593 2.2372704 -1.3305573 15
2.7665942 2.4083567 0 25
2.618176 2.2791567 -1.2634224 13
2.7477517 2.3919539 0.084580146 24
2.6395891 2.2977972 -1.1825122 14
2.7530427 2.39656 0.17021586 5
2.6611648 2.3165791 -1.1009451 13
15.027213 13.081388 1.3931762 30
2.6681213 2.3226347 -1.0143455 12
68.39418 59.538033 8.4598551 21
2.6764045 2.3298454 -0.92892629 12
64.402611 56.063324 9.9852438 49
2.694993 2.3460271 -0.84661371 10
2.7297463 2.3762801 -0.76927334 7
2.8506949 2.4815674 -0.71209502 13
2.1044378 1.8216366 -1.6506599 4
2.8440557 2.4618621 -0.61800349 14
2.1844628 1.8909074 -1.6233265 16
2.8346679 2.4537361 -0.52690941 15
2.2964773 1.9878691 -1.6149822 9
2.822124 2.4428778 -0.43649435 17
2.3998723 2.0773695 -1.5943195 9
2.8094969 2.4319475 -0.34667271 26
2.4369729 2.1094844 -1.5256462 12
2.792197 2.4169724 -0.25823846 16
2.4879558 2.1536162 -1.4650655 11
2.7869134 2.4123988 -0.17189285 25
2.5436938 2.201864 -1.4052521 14
2.7816317 2.4078269 -0.085415728 22
2.5847478 2.2374008 -1.3349222 15
2.7687716 2.3966951 0 25
2.6344767 2.280447 -1.2682106 11
2.7483728 2.3790376 0.084394455 26
2.6545904 2.2978578 -1.1863536 14
2.7491503 2.3797104 0.16956368 5
2.6705103 2.3116384 -1.1021366 12
2.6862252 2.3252413 -1.0187557 12
66.66156 57.703365 8.2255812 21
2.6828997 2.3223629 -0.92892629 10
65.13414 56.381203 10.074215 50
2.7059479 2.3423135 -0.84799707 10
67.079659 58.065269 12.468798 51
2.7378497 2.3699286 -0.76968914 7
2.856127 2.4723113 -0.7117247 16
2.1056058 1.8123857 -1.6475995 4
2.8479285 2.4513345 -0.61735493 16
2.1897352 1.8847994 -1.6233265 16
2.8355055 2.4406416 -0.525796 13
2.304697 1.983752 -1.6168603 7
2.824419 2.4310989 -0.43579742 17
2.4097283 2.0741568 -1.5970125 11
2.8117504 2.4201946 -0.34611538 24
2.4497051 2.1085668 -1.5299245 12
2.7989364 2.4091649 -0.25823846 17
2.5022695 2.153811 -1.4699463 13
2.7875834 2.3993928 -0.17152019 26
2.5456374 2.1911397 -1.4029396 13
2.7853146 2.3974402 -0.085322887 22
2.5952222 2.2338195 -1.3371047 16
2.7709072 2.3850391 0 25
2.6479573 2.2792108 -1.2716309 11
2.7534912 2.3700483 0.08434803 27
2.6739223 2.3015599 -1.1921157 11
2.7527573 2.3694167 0.16937736 5
2.6856377 2.3116441 -1.1057111 12
2.7014513 2.3252554 -1.0220634 12
66.612679 57.336399 8.1997576 21
2.6981735 2.3224342 -0.93196529 10
65.353081 56.252209 10.083739 50
2.7213287 2.3423648 -0.85076374 10
67.346634 57.968143 12.488281 51
2.7489061 2.3661017 -0.77093661 7
2.8555725 2.4579141 -0.70987314 16
2.1119654 1.8076174 -1.6486195 4
2.8502643 2.4395227 -0.61638224 16
2.193665 1.8775436 -1.622347 16
2.8362908 2.427563 -0.52468264 13
2.3035195 1.9715673 -1.6121655 9
2.8266692 2.4193277 -0.43510056 16
2.4127951 2.0650954 -1.5952171 11
2.8124459 2.4071541 -0.34537226 24
2.4610767 2.1064196 -1.5333471 12
2.8011053 2.3974476 -0.25781992 19
2.5096622 2.1480033 -1.4707597 11
2.7927544 2.3903003 -0.17142703 25
2.5657663 2.1960227 -1.410648 14
2.7859221 2.3844526 -0.085137203 22
2.6085267 2.232621 -1.340742 15
2.7775562 2.3772922 0 25
2.6600225 2.276696 -1.274367 11
2.7600985 2.3623502 0.08434803 26
2.6832175 2.2965484 -1.1933961 8
2.7608807 2.3630197 0.16947052 6
2.7022355 2.3128257 -1.1098813 12
15.378797 13.162611 1.4154984 13
2.7137759 2.3227031 -1.0242684 13
66.656029 57.050457 8.1854525 21
2.7134678 2.3224394 -0.93500435 10
2.733773 2.3398185 -0.85260826 8
66.871765 57.235104 12.370541 50
2.7659061 2.367321 -0.7738474 7
2.856452 2.4448187 -0.70839196 16
2.1189439 1.8020884 -1.6496398 4
2.8519003 2.4254425 -0.6150853 15
2.1982241 1.8695135 -1.6213672 17
2.8423944 2.4173579 -0.52440429 15
2.3177726 1.9711854 -1.617799 9
2.8327422 2.4091492 -0.43486825 17
2.4233546 2.0609794 -1.5979103 11
2.8169601 2.3957272 -0.34500068 26
2.4745672 2.1045337 -1.5376254 12
2.8040633 2.3847587 -0.25740138 19
2.5233567 2.1460273 -1.4748272 11
2.8063374 2.3866928 -0.17179969 27
2.5740581 2.1891475 -1.4114189 14
2.7918758 2.3743937 -0.085090779 21
2.6240423 2.2316573 -1.345107 13
2.7804399 2.3646679 0 25
2.6728883 2.2731988 -1.2771032 13
2.7644596 2.3510773 0.084255189 26
2.7062957 2.3016107 -1.2004387 9
2.7713342 2.3569238 0.16965686 6
2.7167597 2.3105102 -1.1128601 12
15.41095 13.10648 1.4146613 10
2.7371688 2.3278675 -1.0303324 12
67.678337 57.558083 8.2887478 21
2.7281194 2.3201711 -0.93753684 10
65.669075 55.849277 10.081184 50
2.748522 2.337523 -0.85491383 8
2.7748196 2.3598881 -0.7742632 7
2.861124 2.4332869 -0.70765138 16
2.1203399 1.7924621 -1.6465793 4
2.862098 2.4195189 -0.61573374 16
2.2037611 1.8629835 -1.6213672 16
2.8450162 2.4050784 -0.52356923 15
2.3249593 1.9654404 -1.6187381 10
2.8322921 2.3943219 -0.43370673 17
2.4253643 2.0503192 -1.5952171 11
2.8210139 2.3847878 -0.34462911 26
2.4890833 2.1041851 -1.5427594 12
2.8187447 2.3828695 -0.25809896 20
2.5352936 2.1432498 -1.478081 11
2.8012002 2.3680379 -0.17105436 26
2.5805416 2.1815009 -1.4114189 13
2.794327 2.3622277 -0.084951513 22
2.6334972 2.2262678 -1.3465619 13
2.7889707 2.3576996 0 26
2.6896675 2.273752 -1.2818915 11
2.7714229 2.3428652 0.084255189 26
2.7203474 2.2996876 -1.2036399 13
2.766109 2.3383729 0.16891152 5
2.7323508 2.3098352 -1.1164346 12
2.7543406 2.3284245 -1.0341914 12
66.898331 56.553539 8.1726332 21
2.7468116 2.3220596 -0.94158888 10
65.810204 55.633675 10.077467 50
2.7658486 2.3381529 -0.85814166 8
2.7907727 2.3592229 -0.77675813 7
2.8638277 2.4209812 -0.70654047 16
2.1269665 1.7872692 -1.6475995 4
2.8632214 2.405937 -0.61443681 16
2.2132843 1.8598011 -1.6243063 13
2.8460753 2.3915291 -0.52245587 15
2.3253734 1.9539886 -1.6149822 10
2.8333011 2.3807952 -0.43277752 17
2.4287009 2.0408137 -1.5934217 11
2.8265533 2.3751252 -0.34444332 26
2.5022361 2.1026046 -1.5470377 12
2.8196931 2.3693604 -0.25754091 20
2.543041 2.1368926 -1.4788945 9
2.8143327 2.3648562 -0.17142703 27
2.6025455 2.1868935 -1.4198983 14
2.7997937 2.3526392 -0.084905095 22
2.6472235 2.224436 -1.3501992 13
2.7944233 2.3481266 0 25
2.6978416 2.2669699 -1.2825755 9
2.7753015 2.3320584 0.084162347 27
2.7344124 2.2976999 -1.206841 11
2.7745652 2.33144 0.16900469 5
2.7508864 2.311543 -1.1212006 12
15.725211 13.213741 1.4362857 10
2.7685971 2.3264251 -1.0369477 13
67.119217 56.399616 8.1791353 21
2.7729466 2.3300798 -0.9481734 13
67.17038 56.442612 10.260056 52
2.7802243 2.3361952 -0.86044723 10
2.8022542 2.3547068 -0.7780056 7
2.8649802 2.4074147 -0.70505923 17
2.1293087 1.7791169 -1.645559 4
2.8699284 2.3979323 -0.61443681 16
2.2144547 1.8502595 -1.6213672 13
2.8527422 2.3835726 -0.52245587 15
2.3308206 1.9474876 -1.6149822 9
2.8429868 2.3754218 -0.43324214 17
2.4371331 2.0363157 -1.5952171 11
2.8255341 2.3608391 -0.34351441 26
2.5178082 2.1037226 -1.5530273 12
2.8293602 2.3640361 -0.25781992 20
2.5546064 2.134469 -1.4821484 9
2.8209252 2.3569884 -0.17142703 27
2.6072257 2.1784344 -1.4191273 13
2.8078864 2.3460939 -0.084951513 22
2.6562839 2.2194242 -1.3516542 15
2.7994347 2.3390322 0 25
2.708488 2.2630427 -1.2846277 10
2.7818024 2.3242998 0.084162347 27
2.7480879 2.2961299 -1.2100422 13
15.821712 13.219631 0.96148205 12
2.767586 2.3124216 -1.1253709 13
2.7765579 2.3199177 -1.0374991 13
67.293243 56.226021 8.181179 21
2.7824116 2.3248088 -0.94918638 13
2.801671 2.3409009 -0.86505842 10
2.8148236 2.3518901 -0.77966893 8
2.8671668 2.3956249 -0.70394832 17
2.1342692 1.7731632 -1.645559 4
2.8705423 2.3848631 -0.61313981 16
2.2236369 1.8474106 -1.6243063 9
2.8578646 2.3743305 -0.52217752 15
2.3389671 1.9432275 -1.6168603 10
2.846554 2.3649337 -0.43277752 17
2.4400613 2.0272171 -1.5934217 9
2.8305845 2.3516662 -0.34332862 28
2.533407 2.1047692 -1.5590171 12
2.8313477 2.3523002 -0.25740138 20
2.5703952 2.1354995 -1.4878427 11
2.8228869 2.3452709 -0.17114753 27
2.6218166 2.1782205 -1.4237524 11
2.8144276 2.338243 -0.084951513 22
2.662472 2.2119973 -1.3516542 18
2.8044178 2.3299267 0 26
2.7278078 2.2662785 -1.290784 12
2.7882829 2.3165216 0.084162347 27
2.7646916 2.296922 -1.2145238 13
15.872399 13.186882 0.96232051 12
2.7813761 2.3107834 -1.1283495 15
15.912328 13.220055 1.4466097 84
2.7933776 2.3207543 -1.041358 13
67.445419 56.034046 8.1806221 21
2.8052638 2.3306296 -0.95475799 12
68.219505 56.677166 10.371794 53
2.8156824 2.3392854 -0.86736399 10
2.8289046 2.3502705 -0.78174806 7
2.8738461 2.3876081 -0.70394832 17
2.1418645 1.7693878 -1.6475995 4
2.875669 2.3755813 -0.61281562 16
2.2287869 1.841194 -1.6243063 9
2.8614295 2.3638182 -0.52162081 15
2.3375771 1.9310653 -1.6121655 12
2.8546782 2.3582408 -0.43300983 17
2.440201 2.0158427 -1.5898309 11
2.8402109 2.3462896 -0.3437002 28
2.5434551 2.1011405 -1.5615839 12
2.8363671 2.3431141 -0.25726187 20
2.5763483 2.1283135 -1.4878427 9
2.8248041 2.3335621 -0.17086802 26
2.6364253 2.177943 -1.4283775 14
2.817863 2.3278279 -0.084858671 22
2.6758196 2.2104864 -1.3552916 18
2.8124547 2.3233602 0 26
2.7370231 2.2610464 -1.292152 12
2.7947407 2.3087265 0.084162347 27
2.7769377 2.2940197 -1.2170848 14
15.970771 13.193404 0.96604717 15
2.7951772 2.3090875 -1.1313283 17
15.998401 13.21623 1.4510741 45
2.8087401 2.3202918 -1.0446657 12
67.752075 55.969784 8.1988287 21
2.8192191 2.3289483 -0.95729047 13
68.2994 56.421928 10.359946 53
2.8387077 2.3450477 -0.87243634 10
2.8490303 2.3535752 -0.78549045 7
2.8759561 2.3758185 -0.70283741 16
2.1431162 1.7597504 -1.6445389 4
2.8796539 2.3645344 -0.61216712 16
2.2328923 1.833467 -1.6233265 7
2.8684301 2.3553183 -0.52162081 15
2.3405662 1.92188 -1.6102875 15
2.8555214 2.3447187 -0.43208063 17
2.4503148 2.0119963 -1.5925239 11
2.8456206 2.3365889 -0.34351441 28
2.5552664 2.0981739 -1.5650066 13
2.8433063 2.3346887 -0.25726187 20
2.5882995 2.1252983 -1.4910966 9
2.8378911 2.3302422 -0.17124069 28
2.6428754 2.1701114 -1.4283775 16
2.8232119 2.3181887 -0.084812254 22
2.691005 2.2096314 -1.3596565 21
2.8193357 2.3150058 0 26
2.7524343 2.260072 -1.2962563 12
2.8031232 2.3016937 0.084208772 27
2.793982 2.2941878 -1.2215664 13
16.080868 13.204283 0.97033292 28
2.8034914 2.301996 -1.1319242 17
16.103844 13.223149 1.4570732 63
2.8260124 2.3204885 -1.0485245 14
67.309929 55.269363 8.1254444 21
2.8335929 2.3267128 -0.95982301 13
68.451141 56.206432 10.357623 53
2.8501649 2.3403203 -0.87381971 10
2.8620481 2.3500781 -0.78715372 8
2.8829923 2.3672755 -0.70283741 16
2.147301 1.751922 -1.6435187 4
2.8855386 2.354229 -0.61184287 16
2.238641 1.8264436 -1.6233265 9
2.8742807 2.3450439 -0.52134252 15
2.3452239 1.9134017 -1.6093487 16
2.8628731 2.335737 -0.43208063 17
2.4538536 2.0020294 -1.5907286 11
2.8606615 2.3339324 -0.34444332 30
2.5604444 2.0889938 -1.5641509 12
2.8506267 2.3257453 -0.25726187 20
2.6048729 2.125242 -1.4967909 12
2.8421013 2.3187897 -0.17105436 27
2.6596894 2.169965 -1.4337735 16
2.8320296 2.3105726 -0.084858671 22
2.7037075 2.2058783 -1.3625665 18
2.8265941 2.3061378 0 26
2.7653453 2.2561667 -1.2989925 12
2.8196354 2.3004606 0.084487297 12
2.8158565 2.2973773 -1.2279687 11
16.191927 13.210534 0.97452533 28
2.8269818 2.3064542 -1.1384773 15
16.273615 13.27718 1.4686528 66
2.8466949 2.3225377 -1.0534861 13
67.478592 55.053867 8.1248865 21
2.8468847 2.3226924 -0.96184897 13
2.8620267 2.3350463 -0.87520307 8
2.8830588 2.352206 -0.79089612 8
2.8919375 2.3594496 -0.70320767 17
2.1498177 1.7433753 -1.6414783 4
2.8971102 2.3493855 -0.61281562 16
2.2413421 1.8175962 -1.6213672 8
2.8827646 2.3377519 -0.52162081 15
2.3508914 1.9064342 -1.6093487 16
2.8713341 2.3284824 -0.43231291 17
2.4583952 1.9936136 -1.5898309 9
2.864481 2.3229251 -0.34407178 30
2.5680358 2.0825255 -1.5650066 12
2.8590646 2.3185327 -0.25740138 20
2.6154253 2.1209557 -1.4992313 12
2.8520727 2.3128629 -0.17124069 28
2.6689835 2.1643882 -1.4353151 14
2.8435323 2.3059368 -0.084997937 21
2.7174761 2.2037127 -1.3662038 16
2.8365314 2.3002596 0 8
2.7778671 2.2526863 -1.3017287 12
2.8248963 2.2908242 0.08444088 4
2.8314912 2.2961724 -1.2318102 11
16.311747 13.227863 0.97937 29
2.8471591 2.3088782 -1.1438391 15
16.350132 13.258992 1.4720011 45
2.86552 2.3237677 -1.0578963 13
67.686508 54.889767 8.1302738 21
2.8642838 2.3227651 -0.96539456 14
2.8795238 2.3351238 -0.8784309 8
2.8961039 2.3485694 -0.79255944 8
2.8973994 2.3496199 -0.70283741 17
2.1594269 1.7424374 -1.645559 4
2.9013071 2.341059 -0.61249137 16
2.2444203 1.8110183 -1.6203876 8
2.8853865 2.3282127 -0.52106416 15
2.3500462 1.8962476 -1.6055928 16
2.8770158 2.3214586 -0.43231291 17
2.4632602 1.9875997 -1.5898309 11
2.8716991 2.3171682 -0.34425753 30
2.5787446 2.0807841 -1.5684292 12
2.8693805 2.3152974 -0.25781992 20
2.6262887 2.1191471 -1.5024853 12
2.8577166 2.3058858 -0.17124069 25
2.6785736 2.1613357 -1.4376277 14
2.8507154 2.3002365 -0.085044362 4
2.7315526 2.2040844 -1.3705686 15
2.7921393 2.2529719 -1.3058329 12
15.562228 12.557132 0.46426237 12
2.8400433 2.2916255 -1.2330906 11
16.421764 13.25069 0.9840284 16
2.8661659 2.3127036 -1.1492009 13
16.457016 13.279135 1.4786978 68
2.8756788 2.3203797 -1.05955 14
67.883987 54.775455 8.1378918 21
2.8850091 2.3279083 -0.97045958 13
68.38208 55.177368 10.275388 52
2.8988526 2.3390784 -0.88258094 8
2.918582 2.3549981 -0.79713351 7
2.9046624 2.3437665 -0.70320767 17
2.1675742 1.7377974 -1.6475995 4
2.9086468 2.3319335 -0.61249137 16
2.2500982 1.8039589 -1.6203876 7
2.8911405 2.3178983 -0.52078575 15
2.3573692 1.8899605 -1.6065319 16
2.8827446 2.3111668 -0.43208063 17
2.470886 1.9809698 -1.5907286 11
2.8696418 2.300662 -0.34314284 28
2.5782166 2.0670195 -1.5641509 12
2.8719695 2.3025281 -0.25740138 8
2.6372092 2.114315 -1.5049257 12
2.8727398 2.3031459 -0.17170653 3
2.6939888 2.1598368 -1.4422528 14
2.7428234 2.1989887 -1.3727511 16
13.986081 11.212984 0 12
2.803602 2.2477164 -1.3078851 12
15.590678 12.499429 0.4639374 17
2.8546197 2.2886186 -1.2362918 11
2.882354 2.3108537 -1.1527753 13
16.627848 13.330953 1.4902773 65
2.8919537 2.3185501 -1.0628577 13
67.988914 54.508377 8.1299028 21
2.9043841 2.3285158 -0.97451156 13
68.666656 55.051743 10.292113 52
2.9152966 2.3372645 -0.88534766 8
2.9366498 2.3543842 -0.8000443 11
2.9120107 2.3346303 -0.70320767 16
2.1656935 1.7263755 -1.6424985 4
2.9166915 2.325031 -0.61281562 16
2.2537644 1.7965808 -1.6194079 7
2.9022489 2.3135183 -0.52162081 15
2.3612573 1.8822685 -1.6055928 16
2.8907411 2.3043449 -0.43231291 15
2.4778066 1.9751754 -1.5916264 9
2.8900704 2.3038101 -0.3448149 13
2.5868063 2.0620642 -1.5658623 12
2.8924298 2.305691 -0.25865701 2
2.6502473 2.1126359 -1.508993 12
2.7043397 2.1557555 -1.4445653 13
11.429117 9.1106834 -0.33934185 1
2.7591517 2.1994486 -1.3778434 15
14.076772 11.221252 0 15
2.8201559 2.2480779 -1.3126733 12
15.628652 12.458329 0.46403024 20
2.8728533 2.2900856 -1.2414137 9
63.43058 50.56348 3.7828541 29
2.8947685 2.3075552 -1.1551584 15
16.707138 13.31804 1.4940442 47
2.9119475 2.3212495 -1.0678191 13
68.034996 54.233875 8.1172695 21
2.9154146 2.3240132 -0.97603106 13
2.9294217 2.3351789 -0.88765323 8
2.9493325 2.3510509 -0.80170757 12
2.9200563 2.3277135 -0.703578 16
2.1694567 1.7188752 -1.6414783 4
2.9266694 2.31882 -0.61346406 16
2.253617 1.7855561 -1.6154891 8
2.907547 2.303669 -0.52134252 5
2.3640625 1.8730627 -1.6037149 16
2.9037921 2.3006942 -0.43324214 5
2.4794524 1.9644868 -1.5889332 11
2.5900784 2.0521367 -1.5641509 12
8.2395811 6.528276 -0.73509371 0
2.666527 2.1127074 -1.5146873 12
9.5473013 7.5643911 -0.56803834 0
2.7208483 2.1557465 -1.4499612 14
11.431018 9.0568724 -0.33859909 1
2.7642038 2.1900973 -1.377116 13
14.163297 11.221676 0 9
2.8238659 2.2373681 -1.3113052 10
15.656138 12.404465 0.46375173 20
2.8781488 2.2803767 -1.2407734 8
57.222744 45.337967 3.4045968 29
2.9105794 2.3060718 -1.1587328 15
16.820068 13.326653 1.5006013 65
2.9263554 2.3185711 -1.0705756 14
16.864717 13.362029 2.0073948 3
2.9329116 2.3237655 -0.97957659 13
68.328644 54.137245 10.194548 51
2.9454882 2.3337302 -0.89041996 8
2.9716272 2.3544405 -0.80586576 12
2.9392726 2.3288057 -0.70654047 16
2.1769514 1.7149388 -1.6435187 4
2.9439857 2.3191862 -0.61573374 3
2.2640738 1.7835712 -1.6194079 7
2.9279709 2.3065701 -0.52384758 1
2.3720586 1.8686385 -1.6055928 16
6.5319695 5.1456947 -0.97241372 1
2.483525 1.9564487 -1.5880355 11
7.2582264 5.7178187 -0.86203724 3
2.5957994 2.0448949 -1.5641509 12
8.2499456 6.4990664 -0.73439616 0
2.6824636 2.1131666 -1.5203817 12
9.5448494 7.5191541 -0.56664085 0
2.7268581 2.1481392 -1.4499612 13
11.420142 8.9964552 -0.33753142 1
2.7805536 2.190439 -1.3822083 15
14.204006 11.189502 0 4
2.8433905 2.2399399 -1.3174616 12
15.684437 12.355742 0.46356601 20
2.8949249 2.2805374 -1.245255 9
57.535892 45.325096 3.4156835 29
2.926007 2.305023 -1.1623074 15
16.985735 13.380866 1.5120413 68
2.9433904 2.318717 -1.0744345 14
16.869118 13.289 2.0034933 14
2.9515486 2.3251438 -0.98362863 13
68.568512 54.016273 10.207788 51
2.9657528 2.3363335 -0.89456999 10
2.979728 2.3473427 -0.80628163 10
2.9967136 2.3607235 -0.71876049 13
2.182328 1.7080916 -1.6435187 4
5.4456053 4.2622342 -1.1361407 1
2.2710385 1.7775247 -1.6203876 7
5.9187531 4.6325631 -1.0563239 1
2.3793077 1.8622662 -1.6065319 16
6.5465388 5.1239262 -0.97218144 1
2.4882517 1.9475358 -1.5871378 11
7.2620397 5.6839433 -0.86036515 3
2.6022105 2.0367305 -1.5641509 12
8.2624655 6.466969 -0.73369861 1
2.6991603 2.1126122 -1.526076 12
9.5511179 7.4755878 -0.56561601 0
2.7423127 2.1463873 -1.4545863 13
11.402687 8.9247971 -0.33618519 1
2.7962234 2.1885829 -1.3865732 15
14.185539 11.102914 0 6
2.8533728 2.2333133 -1.3188297 10
15.718451 12.302713 0.46342677 19
2.9169955 2.2831104 -1.2516574 9
63.020702 49.325825 3.7320783 29
2.9467647 2.3064103 -1.1676691 15
17.1031 13.386466 1.5187379 48
2.9612575 2.3177538 -1.0782934 13
2.9664564 2.3218229 -0.98616117 13
68.922447 53.945076 10.2352 52
2.9884028 2.3390002 -0.89918119 10
3.000952 2.3488224 -0.81002402 8
3.0226877 2.3658347 -0.72320414 13
2.1854353 1.7013149 -1.6424985 4
5.4458456 4.2394748 -1.133871 1
2.2701814 1.767288 -1.6164689 7
5.9433646 4.6267829 -1.0585507 1
2.3841755 1.8560299 -1.6065319 15
6.5442557 5.094564 -0.96985841 1
2.4919319 1.9399161 -1.5862401 11
7.2737541 5.6624627 -0.85999358 3
2.6089606 2.0310204 -1.5650066 12
8.2746468 6.4416361 -0.73328 1
2.7147746 2.1133943 -1.5317703 12
9.5611992 7.4431901 -0.56505698 0
2.7493794 2.1403334 -1.4553572 13
11.410238 8.8826275 -0.33572096 1
2.8078244 2.1858315 -1.3894831 16
14.162481 11.02519 0 6
2.8621767 2.2281437 -1.3201977 10
15.736409 12.25046 0.463009 19
2.9199731 2.2731369 -1.2503769 8
17.626345 13.721734 1.0416987 7
2.9618325 2.3057237 -1.1712435 15
17.191618 13.383308 1.5234814 67
2.9824862 2.3218021 -1.0838062 13
17.077374 13.294373 2.0190995 48
2.9862657 2.3247442 -0.99071968 13
2.9991238 2.334754 -0.90056455 8
3.0178974 2.3493688 -0.81293476 10
3.0412788 2.3675709 -0.72616655 13
2.1891127 1.6937709 -1.6414783 4
5.4537168 4.219676 -1.1328982 1
2.2754149 1.7605449 -1.6164689 8
5.9367027 4.5933743 -1.0549322 1
2.3826885 1.8435453 -1.601837 13
6.5546298 5.0714798 -0.96916151 1
2.496263 1.9314207 -1.5853424 11
7.2794971 5.6323276 -0.85869312 3
2.6121156 2.0210588 -1.5632954 12
8.2858324 6.410954 -0.73258251 0
2.7195878 2.1042125 -1.5309567 10
9.5627003 7.3988986 -0.56384587 0
2.7644749 2.138943 -1.4599822 13
11.409658 8.8279362 -0.33493179 1
2.8216646 2.183192 -1.3931205 15
14.154003 10.951303 0 8
2.8776932 2.2265427 -1.324302 10
15.761616 12.195153 0.46268401 19
2.9371943 2.2725801 -1.2548585 11
17.670137 13.671824 1.041885 11
2.9777205 2.3039362 -1.174818 15
17.346439 13.421371 1.5336659 75
3.0000055 2.3211787 -1.0876651 13
17.198639 13.307014 2.02876 45
3.0008011 2.3217943 -0.99325216 14
71.007439 54.94022 10.499095 54
3.0152729 2.3329914 -0.90333128 10
3.0264018 2.3416021 -0.81335062 11
3.056062 2.3645508 -0.72801811 13
2.1886744 1.6830728 -1.6373975 4
5.4443116 4.1866317 -1.128359 1
2.2875397 1.7590996 -1.6213672 8
5.9691467 4.5902252 -1.0582724 1
2.3909481 1.8386197 -1.6037149 12
6.5633507 5.0471635 -0.96823227 1
2.4934828 1.917468 -1.5799562 15
7.277235 5.5961347 -0.85646373 3
2.6238332 2.0177064 -1.566718 12
8.29533 6.3790417 -0.73174542 0
2.7374067 2.1050436 -1.5374646 7
9.5735264 7.3619642 -0.56319368 0
2.7795873 2.13748 -1.4646072 11
11.413612 8.7769756 -0.33428189 1
2.831084 2.1770806 -1.3945755 13
14.183266 10.906816 0 6
2.894716 2.2260132 -1.3290902 12
15.78981 12.142236 0.46245193 19
2.9529369 2.2707846 -1.2587 9
17.701126 13.612022 1.041326 11
2.9936247 2.302073 -1.1783925 15
17.514296 13.468351 1.5449663 41
3.011452 2.3157821 -1.0893189 14
17.332766 13.328755 2.039907 56
3.0168798 2.3199563 -0.99629122 14
71.050476 54.637241 10.48144 54
3.0360665 2.3347106 -0.90748131 10
3.045743 2.3421516 -0.81667721 11
3.067739 2.3590662 -0.72912902 11
2.1977584 1.6797057 -1.6404581 4
5.4692526 4.180048 -1.1309528 1
2.2872074 1.7480699 -1.6174484 8
5.9685764 4.5616713 -1.0557673 1
2.3921833 1.8283011 -1.6008981 10
6.5735602 5.0240493 -0.96753532 1
2.5062606 1.9154881 -1.5844448 16
7.2953877 5.5757289 -0.85664946 3
2.6211903 2.0033267 -1.5615839 12
8.2967815 6.3410754 -0.73021078 0
2.7436399 2.0969129 -1.5374646 8
9.5651674 7.3104787 -0.56142354 0
2.7888491 2.1314654 -1.466149 11
11.399887 8.7127209 -0.33312133 1
2.8434513 2.1731968 -1.3974854 13
14.152 10.81611 0 2
2.9087737 2.2231214 -1.3325105 12
15.819408 12.090479 0.46226621 19
2.9686937 2.2689171 -1.2625414 11
17.706512 13.532756 1.0392764 11
3.0140934 2.3036153 -1.1837543 13
17.600147 13.451464 1.5490123 52
3.0290015 2.3150091 -1.0931778 14
17.467163 13.349827 2.0510542 60
3.0345101 2.3192196 -0.99983668 14
71.338524 54.522701 10.500024 54
3.0522573 2.3327832 -0.91024804 10
3.0728846 2.3485482 -0.82208294 12
3.0809705 2.3547282 -0.73061019 13
2.197253 1.6690156 -1.6363775 4
5.4894891 4.1697717 -1.1325741 1
2.2965493 1.7444403 -1.6203876 7
5.9773531 4.5403495 -1.0549322 1
2.4004099 1.8233321 -1.6027761 7
6.5805287 4.9985166 -0.96637392 1
2.5119326 1.9080439 -1.5844448 16
7.3007989 5.5456281 -0.855349 3
2.6285622 1.9966347 -1.5624397 12
8.3076153 6.3103981 -0.72951317 0
2.7600338 2.0964994 -1.5431589 10
9.5884066 7.2832766 -0.5615167 0
2.8039784 2.1298795 -1.4707741 13
11.404988 8.6631374 -0.33251786 1
2.8528538 2.1670048 -1.3989403 13
14.121917 10.726894 0 2
2.9213431 2.2190287 -1.3352467 12
15.85362 12.042282 0.4622198 19
2.9859741 2.268122 -1.267023 9
17.717949 13.458411 1.0375993 10
3.0285165 2.300437 -1.186733 13
17.730539 13.467976 1.5569645 81
3.0496354 2.3164785 -1.0981393 13
17.595497 13.365397 2.0614581 56
3.0598664 2.32425 -1.0059147 14
71.48732 54.301193 10.498165 54
3.0700133 2.3319573 -0.91347587 10
3.0907438 2.3477042 -0.82499367 12
3.0973341 2.35271 -0.73283201 13
2.2032783 1.6639093 -1.6373975 4
5.4916635 4.1472878 -1.1306286 1
2.2930636 1.7317148 -1.6145095 8
5.9757857 4.5128956 -1.0524271 1
2.4040835 1.8155566 -1.601837 9
6.5817819 4.970542 -0.96451551 1
2.5072682 1.8934815 -1.5781609 15
7.3083134 5.5192165 -0.85442013 3
2.6341281 1.9892857 -1.5624397 12
8.3029165 6.2703381 -0.72755998 0
2.7585881 2.0832775 -1.5390915 8
9.5672588 7.2251649 -0.55909437 0
2.8202248 2.1298254 -1.4761699 14
11.402015 8.6107674 -0.3317287 1
2.866328 2.1646423 -1.4025778 12
14.110324 10.656075 0 2
2.9350278 2.2165244 -1.3386669 12
15.885593 11.996753 0.46217337 19
2.9983449 2.2643411 -1.2695839 9
17.726768 13.387203 1.0359223 10
3.0440712 2.2988734 -1.1903076 12
17.866795 13.492949 1.5656142 93
3.0637639 2.3137453 -1.1008956 14
17.726513 13.387009 2.0724194 58
3.0740657 2.3215253 -1.0084473 13
71.648209 54.108513 10.499559 54
3.0904913 2.3339298 -0.91762596 10
3.0988498 2.3402421 -0.82540953 11
3.1148717 2.3523419 -0.73542416 11
2.2092917 1.6587834 -1.6384177 4
5.4905963 4.122457 -1.1280346 1
2.3020732 1.7284458 -1.6174484 7
5.994699 4.5009484 -1.0535405 1
2.4133801 1.8120174 -1.604654 10
6.6004004 4.9557219 -0.96521235 1
2.5196917 1.8918384 -1.5826494 16
7.3189182 5.4952002 -0.85386276 3
2.6382267 1.9808371 -1.5615839 12
8.3108206 6.2399416 -0.72672296 0
2.7658558 2.0766637 -1.5399051 8
9.5714197 7.1864266 -0.55816269 0
2.8320642 2.1263742 -1.4792534 14
11.387639 8.5500832 -0.3306146 1
2.8813002 2.1633418 -1.4069426 13
14.09844 10.58541 0 2
2.9442115 2.210577 -1.340035 14
15.90624 11.942745 0.46180204 19
3.0092018 2.2593729 -1.2715046 9
17.727335 13.310062 1.0337795 10
3.059639 2.2972424 -1.1938821 12
17.92993 13.462174 1.5678465 50
3.0855868 2.3167245 -1.1064085 14
17.854593 13.405611 2.083009 46
3.086725 2.3175793 -1.0104733 11
72.159615 54.178986 10.552292 54
3.1141155 2.3381445 -0.92269832 11
3.1319673 2.351548 -0.83247846 13
3.137145 2.3554356 -0.73912722 11
2.2144926 1.6518339 -1.6384177 3
3.3172996 2.4744396 -0.67993349 1
2.3060949 1.7201619 -1.6164689 7
5.9897609 4.4678817 -1.0502003 1
2.4204767 1.8054816 -1.6055928 7
6.6047926 4.9266458 -0.96358627 2
2.5241904 1.8828439 -1.5817516 16
7.3233781 5.4626532 -0.85237646 3
2.6473355 1.9747001 -1.5632954 12
8.31919 6.2054491 -0.72574633 0
2.7752955 2.070148 -1.5415319 8
9.5779371 7.1443739 -0.55723101 0
2.8461275 2.122983 -1.4831076 16
11.379187 8.4879608 -0.3295933 1
2.8940561 2.1587338 -1.4098525 13
14.067503 10.49323 0 2
2.9616873 2.2091813 -1.3448232 12
15.940476 11.890318 0.46170914 19
3.0208418 2.2533059 -1.2734253 11
17.749849 13.239965 1.0326616 14
3.072963 2.2921841 -1.1962651 12
18.06809 13.477347 1.5762173 31
3.1036375 2.3150649 -1.1102674 14
17.97324 13.406597 2.0919266 15
3.1141527 2.3229084 -1.0170578 14
72.206879 53.860542 10.534405 54
3.1292458 2.3341665 -0.92500383 11
3.1487486 2.3487141 -0.83497345 13
3.1524072 2.3514433 -0.74097878 12
2.2119012 1.6409065 -1.6333169 2
3.3158405 2.4598677 -0.67831224 7
2.3077893 1.7120413 -1.6145095 7
5.9759865 4.4333057 -1.0457468 1
2.419522 1.7949307 -1.601837 7
6.6112852 4.9046044 -0.96265703 1
2.5291109 1.8762295 -1.5817516 16
7.334455 5.4410901 -0.85200495 3
2.6452365 1.9623778 -1.5590171 12
8.3273945 6.1777058 -0.72504878 0
2.779238 2.0617871 -1.5407184 8
9.5677252 7.0978498 -0.55555397 0
2.8561218 2.1188235 -1.4854201 16
11.380492 8.4426565 -0.32898983 1
2.9056823 2.1555903 -1.4127624 12
14.057981 10.428961 0 2
2.9734981 2.2058997 -1.3475593 12
15.971549 11.848548 0.46170914 19
3.0373824 2.2532926 -1.277907 11
17.861465 13.250589 1.0371336 14
3.0881531 2.2909567 -1.1998396 12
18.074469 13.408606 1.573706 27
3.1189513 2.3138046 -1.1135749 14
17.987486 13.344077 2.0895114 19
3.1295464 2.3216646 -1.0200969 14
72.393898 53.705658 10.541142 54
3.1415973 2.3306046 -0.92684829 9
3.1580286 2.3427944 -0.83580506 11
3.1664445 2.3490376 -0.74283022 10
2.2225842 1.6380322 -1.6373975 2
3.3235517 2.4494393 -0.67831224 7
2.3131561 1.7047832 -1.6145095 6
6.0042329 4.4250865 -1.0482519 1
2.4279916 1.7894164 -1.6037149 7
6.6234622 4.8814549 -0.96219242 1
2.5306764 1.8650944 -1.5790584 17
7.3418927 5.4109344 -0.85089022 3
2.6557539 1.9572757 -1.5615839 12
8.3371239 6.1444144 -0.72421175 0
2.7871721 2.0541303 -1.5415319 8
9.5803261 7.0606475 -0.554995 0
2.8791053 2.1218846 -1.4938993 14
11.374766 8.3831396 -0.3280614 1
2.921438 2.1530836 -1.4171273 12
14.048814 10.353898 0 2
2.9849517 2.1998928 -1.3496114 10
16.000647 11.792387 0.46147707 19
3.0505469 2.2482362 -1.2804679 10
18.001108 13.266716 1.0428168 15
3.1076295 2.2903059 -1.2046056 12
18.094017 13.33519 1.5717529 27
3.1354904 2.3108392 -1.1168826 12
17.998857 13.265059 2.0859816 23
3.1508417 2.3221529 -1.0246553 14
73.430557 54.117912 10.667281 55
3.1661363 2.3334248 -0.93192065 11
3.1858454 2.3479505 -0.84121072 11
3.1848831 2.3472412 -0.74542236 14
2.2271495 1.6318196 -1.6373975 2
3.3335624 2.4424822 -0.6789608 7
2.3193138 1.699348 -1.6154891 6
6.0037847 4.3989387 -1.0460252 1
2.4315546 1.7815862 -1.6027761 7
6.6306572 4.8582444 -0.96126318 2
2.5387578 1.8601333 -1.5808538 16
7.3441224 5.3809967 -0.84940392 3
2.6568341 1.9466473 -1.5590171 12
8.3478107 6.1163931 -0.72365367 0
2.7870016 2.0420201 -1.538278 8
9.5855017 7.023242 -0.55415648 0
2.8894851 2.1171093 -1.496212 13
11.364261 8.3265285 -0.32708657 1
2.9349525 2.150423 -1.4207647 13
14.02927 10.279166 0 2
2.9986629 2.1971033 -1.3530316 10
16.044802 11.755935 0.46180204 19
3.067512 2.2475486 -1.2849497 12
18.146055 13.295511 1.0490588 15
3.1232533 2.2883899 -1.2081801 12
18.121525 13.277537 1.5709157 27
3.1636424 2.3179827 -1.1246005 14
18.090443 13.254764 2.092298 19
3.17136 2.3236375 -1.0292139 14
72.942039 53.444214 10.574593 54
3.1867683 2.3349268 -0.93607074 11
72.500725 53.120869 12.63163 52
3.2018576 2.3459828 -0.84370571 9
3.2025228 2.3464701 -0.74801445 14
2.224746 1.6205289 -1.6322966 3
3.3323951 2.4273524 -0.67733955 7
2.3170042 1.6877308 -1.6105907 5
6.0240512 4.3879838 -1.0474168 1
2.433666 1.7727085 -1.6008981 7
6.6361723 4.8338594 -0.96010178 1
2.5424984 1.8519832 -1.5799562 16
7.3559031 5.3581195 -0.84903234 3
2.6564159 1.9349619 -1.5555943 10
8.3487339 6.0813079 -0.72225851 0
2.7926939 2.0342283 -1.538278 8
9.5792408 6.9776225 -0.55266583 1
2.9147789 2.1231563 -1.506233 14
11.363228 8.2770977 -0.32639021 1
2.9469705 2.146605 -1.4236746 12
14.025593 10.216393 0 2
3.0169404 2.1975718 -1.3585039 12
16.085651 11.716961 0.46203411 9
3.0799031 2.2434347 -1.2875105 12
18.263861 13.303593 1.0537173 15
3.1435213 2.2897749 -1.2135419 11
18.256908 13.298529 1.5794261 27
3.1778736 2.3147974 -1.1273569 14
18.235235 13.282742 2.1047456 19
3.1872208 2.3216059 -1.0322529 14
72.626984 52.902275 10.507458 54
3.1979959 2.3294547 -0.93745399 9
72.725647 52.974148 12.64499 53
3.2210474 2.3462458 -0.84703237 9
3.2233617 2.3479314 -0.75134724 14
2.2264757 1.6122925 -1.6302563 3
3.3295698 2.4110932 -0.67539418 7
2.3231201 1.6822771 -1.6115705 6
6.0218434 4.3606911 -1.0449117 1
2.4414673 1.7679776 -1.6027761 7
6.6496444 4.8153105 -0.96010178 1
2.5418696 1.8406836 -1.5763654 15
7.3595457 5.3293824 -0.84773189 3
2.6618085 1.9275368 -1.5555943 12
8.3527555 6.0486107 -0.72114241 0
2.7939241 2.0232077 -1.5358377 8
9.5760336 6.9344425 -0.5513615 0
2.9281697 2.1204212 -1.5100871 14
11.370103 8.2336092 -0.32592601 1
2.9635155 2.1460166 -1.428767 13
14.01195 10.14669 0 1
3.0306759 2.1946504 -1.3619242 12
16.095634 11.655581 0.46138421 9
3.0922942 2.2392712 -1.2900715 14
18.412588 13.333393 1.0601457 15
3.1529956 2.2832277 -1.2147332 12
18.387697 13.315369 1.5875179 19
3.2014532 2.3183181 -1.1334208 14
18.369028 13.301849 2.1158926 15
3.1999593 2.3172364 -1.0342789 15
72.637665 52.600243 10.487712 54
3.2186742 2.3307886 -0.94160408 9
72.775436 52.700012 12.628012 52
3.2434313 2.3487163 -0.85119057 11
3.2426407 2.3481438 -0.75430971 12
2.2326458 1.6066846 -1.6312765 3
3.3431158 2.4058151 -0.67669111 7
2.3266857 1.6743587 -1.6105907 6
6.0218945 4.3335514 -1.042685 1
2.4495683 1.7627891 -1.604654 6
6.6493888 4.7851167 -0.95801097 1
2.550221 1.835222 -1.5781609 12
7.3704767 5.3040352 -0.84717458 3
2.6631138 1.9164634 -1.5530273 13
8.3560896 6.0133142 -0.71988684 0
2.8028803 2.0170438 -1.5374646 8
9.5884571 6.900166 -0.55089563 1
2.9374435 2.1138802 -1.5116289 13
11.349039 8.1671381 -0.32462621 1
2.9759181 2.1415675 -1.4316767 13
13.993291 10.070028 0 1
3.0463266 2.1922359 -1.3660284 12
16.099308 11.585587 0.46050218 9
3.1096897 2.237834 -1.294553 14
18.572062 13.36506 1.0670401 15
3.1737027 2.2838998 -1.220095 13
18.555052 13.352819 1.5985394 20
3.21768 2.3155472 -1.1367285 14
18.521555 13.328713 2.1288977 8
3.2240951 2.320164 -1.0398505 15
72.844994 52.421631 10.495145 54
3.2397919 2.3314598 -0.94575417 9
72.751419 52.354294 12.596836 52
3.2583244 2.3447964 -0.85326964 9
3.2607598 2.3465488 -0.75690186 12
2.2390819 1.6006624 -1.6322966 3
3.3474469 2.3930039 -0.67604256 7
2.3347714 1.6690683 -1.61255 6
6.0274239 4.3088508 -1.0412933 1
2.4522216 1.7530304 -1.6027761 6
6.6530786 4.7561154 -0.9563849 1
2.5574281 1.8282399 -1.5790584 9
7.3790045 5.2750616 -0.84624565 3
2.6720631 1.9101894 -1.5547386 15
8.3619566 5.9777489 -0.71877074 0
2.8106897 2.0092902 -1.538278 8
9.5922117 6.8572264 -0.54987085 1
2.9545796 2.1121533 -1.5170248 14
11.363257 8.1233015 -0.32430127 1
2.9932408 2.1397913 -1.4367692 12
13.971169 9.9876308 0 1
3.0577857 2.1859326 -1.3680805 11
16.168161 11.558205 0.46143064 14
3.1197882 2.2302566 -1.2958336 8
18.726103 13.386811 1.0734686 16
3.1870751 2.2783582 -1.222478 11
3.2327595 2.311017 -1.1394849 14
63.307163 45.256668 7.2602487 21
3.2439606 2.3190243 -1.0439025 14
72.734619 51.996117 10.455654 53
3.2550163 2.3269279 -0.94805974 9
71.839287 51.356064 12.410901 51
3.2768154 2.3425114 -0.85618037 11
3.2889016 2.3511515 -0.76171577 12
2.2407393 1.5924097 -1.6302563 3
3.358943 2.3870754 -0.6770153 8
2.3394239 1.6625412 -1.61255 6
6.0394344 4.2920003 -1.0412933 1
2.4542289 1.7441289 -1.6008981 6
6.6663356 4.7375159 -0.9563849 1
2.5566969 1.8169491 -1.5754677 9
7.380723 5.2452044 -0.84475935 3
2.6744404 1.900625 -1.5530273 13
8.3721132 5.9497485 -0.71821266 0
2.8133118 1.9993157 -1.5366511 8
9.6048107 6.8257804 -0.54949814 0
2.9619713 2.1049626 -1.5177957 14
11.350043 8.0660515 -0.32327998 1
3.006798 2.1368191 -1.4404066 12
13.956621 9.9184494 0 1
3.0715384 2.1828277 -1.3715007 11
16.2672 11.560492 0.46333393 9
3.1399045 2.2314129 -1.3015956 10
18.883924 13.4201 1.0803629 16
3.1996505 2.2738721 -1.2248609 12
19.38694 13.777575 1.6631339 53
3.253305 2.3120024 -1.1444464 14
62.350632 44.310265 7.1363306 42
3.2598872 2.3166802 -1.0469415 14
3.2805386 2.3313563 -0.95359319 9
71.788704 51.017555 12.3775 50
3.2976966 2.3435497 -0.85992283 9
3.3050675 2.348788 -0.76393765 14
2.2423666 1.5841626 -1.6282159 3
3.3639829 2.37655 -0.67669111 8
2.3412085 1.6539913 -1.6105907 4
6.0530109 4.2762651 -1.0415715 1
2.4605312 1.7382892 -1.601837 7
6.6730475 4.7143016 -0.95545572 1
2.5603001 1.8087728 -1.5745699 11
7.3855796 5.2176838 -0.84364468 3
2.6797364 1.8931509 -1.5530273 15
8.3805447 5.9205956 -0.71751505 0
2.8173907 1.9903994 -1.5358377 8
9.6091461 6.7885642 -0.54865968 0
2.9693441 2.0977497 -1.5185665 14
11.339858 8.0112591 -0.32235155 1
3.0203602 2.133791 -1.444044 13
13.953222 9.8575201 0 1
3.0868309 2.1807506 -1.375605 13
16.3778 11.570409 0.46556216 10
3.1538601 2.2281046 -1.3047968 12
19.048594 13.457242 1.0876299 16
3.2184618 2.2737436 -1.229627 13
19.549173 13.810886 1.6737368 76
3.2691684 2.3095663 -1.147754 14
64.973907 45.902058 7.4218802 21
3.2853053 2.3209665 -1.0530194 14
71.803802 50.727165 10.280964 52
3.298161 2.3300488 -0.95682102 8
71.948662 50.829506 12.380562 50
3.3186073 2.3444934 -0.86366528 11
3.3196387 2.345222 -0.76578909 14
2.2501488 1.5790858 -1.6302563 2
3.3698175 2.3648353 -0.67636687 8
2.3492477 1.6486304 -1.61255 4
6.0631747 4.254951 -1.0410149 1
2.464535 1.7295356 -1.6008981 6
6.6731911 4.683042 -0.95336497 1
2.5674334 1.8017464 -1.5754677 9
7.3954158 5.189877 -0.84290147 3
2.6797526 1.8805685 -1.5496047 13
8.3958387 5.8919435 -0.71723604 0
2.8251259 1.9825872 -1.5366511 8
9.6075325 6.7422733 -0.54735535 1
2.9759204 2.0884101 -1.5185665 14
11.33715 7.9560657 -0.32156238 1
3.0346742 2.1296418 -1.4476814 12
13.93501 9.7791653 0 1
3.1013589 2.176439 -1.3790252 11
16.500814 11.579768 0.46802253 10
3.1701508 2.224715 -1.3086382 12
19.210159 13.481103 1.0944312 16
3.2334032 2.2691038 -1.2326057 15
19.718218 13.837644 1.6844794 76
3.2842772 2.3048055 -1.1505104 12
60.829212 42.688084 6.9330831 21
3.3036673 2.318413 -1.056565 14
71.834366 50.411167 10.262611 52
3.3213954 2.3308539 -0.96143222 9
72.039917 50.555416 12.368871 50
3.3323622 2.3385501 -0.86532855 12
3.3398609 2.3438125 -0.76875162 15
2.2556856 1.5741743 -1.6312765 2
3.3792334 2.358264 -0.6770153 8
2.3521256 1.641477 -1.6115705 4
6.056427 4.2265959 -1.037953 1
2.4676061 1.7220671 -1.5999593 6
6.6821704 4.6632833 -0.95290041 0
2.5721412 1.795019 -1.5754677 9
7.399179 5.163662 -0.8417868 3
2.6846664 1.873547 -1.5496047 13
8.3850574 5.851676 -0.71500391 0
2.8303063 1.9751846 -1.5366511 8
9.610404 6.7068086 -0.54651678 1
2.9813774 2.0806124 -1.5185665 14
11.339902 7.9137721 -0.32105175 1
3.0432942 2.1238225 -1.4491363 13
13.922841 9.7163267 0 1
3.1132104 2.1726148 -1.3817613 11
16.614693 11.594889 0.47038999 10
3.182179 2.2207458 -1.3111992 10
19.379726 13.524521 1.1020708 17
3.245595 2.265002 -1.2349888 15
19.883629 13.876179 1.6955009 76
3.3029118 2.3050017 -1.1549206 12
60.85257 42.467155 6.9230504 42
3.3240049 2.3197219 -1.0611235 14
71.490417 49.890987 10.194779 51
3.3434451 2.3332884 -0.96604335 11
72.500092 50.595608 12.425097 51
3.3513067 2.3387749 -0.86865509 12
3.3621025 2.3463092 -0.77245462 14
2.2586596 1.5668879 -1.6302563 1
3.3971572 2.3566916 -0.67928499 8
2.3495378 1.6299322 -1.606672 4
6.0665798 4.2085361 -1.0376747 1
2.4709549 1.7141622 -1.5990202 6
6.6984315 4.6468668 -0.95336497 1
2.5800812 1.7898659 -1.5772631 8
7.4053898 5.1373014 -0.84085786 3
2.6913733 1.867072 -1.5504603 13
8.4112015 5.8350577 -0.71584094 0
2.8343103 1.9662309 -1.5358377 8
9.6192484 6.6731095 -0.5459578 1
2.9856598 2.0712259 -1.5177957 14
11.343887 7.8695345 -0.32054108 1
3.0599289 2.1227481 -1.4542286 19
13.90884 9.6489048 0 1
3.1285312 2.1703391 -1.3858656 11
16.730797 11.606565 0.47275749 10
3.1977096 2.2183299 -1.3150406 10
19.54546 13.559167 1.1093378 17
3.2644575 2.2646346 -1.2397548 15
20.061644 13.917256 1.7073596 76
3.3203938 2.3034389 -1.1587795 12
62.83783 43.592152 7.1350303 21
3.3352396 2.3137379 -1.0626431 12
71.781273 49.796436 10.216384 51
3.3579435 2.3294883 -0.96834904 11
72.548355 50.328579 12.409231 51
3.378721 2.3439021 -0.87406081 11
3.3783312 2.3436315 -0.77467638 14
2.2664039 1.5617369 -1.6322966 1
3.4175448 2.3549669 -0.68187898 8
2.3603895 1.6265007 -1.6105907 4
6.0732479 4.1849627 -1.0365614 1
2.4719653 1.7033856 -1.5962034 6
6.6966395 4.6145306 -0.951042 1
2.5827479 1.7797239 -1.5754677 9
7.4100137 5.1061029 -0.83955735 3
2.6972253 1.8586081 -1.5504603 13
8.3867769 5.7791724 -0.71221358 0
2.8419776 1.9583542 -1.5366511 8
9.6121988 6.6235881 -0.54437399 1
2.992152 2.0618365 -1.5177957 14
11.332333 7.8089004 -0.31951982 1
3.0773206 2.1205246 -1.4593209 19
13.889677 9.5711193 0 1
3.1399765 2.1636996 -1.3879176 11
16.869255 11.624291 0.47563565 13
3.2062228 2.2093487 -1.3156807 8
19.712986 13.583854 1.1164185 17
3.2809885 2.2608683 -1.2433293 12
20.239981 13.946996 1.7187995 78
3.3402784 2.301724 -1.1631898 12
61.785641 42.57534 7.0003366 21
3.3552375 2.312032 -1.0666951 12
71.978241 49.598873 10.222191 51
3.3812702 2.3299706 -0.97296017 11
72.246208 49.783524 12.330738 50
3.4021769 2.344377 -0.87821901 9
3.4018612 2.3441596 -0.77837944 12
2.263931 1.5501454 -1.6271957 1
3.4326594 2.35039 -0.68350011 8
2.3623281 1.6175191 -1.6086314 4
6.0872731 4.1680412 -1.0368397 1
2.4770091 1.6960428 -1.5962034 6
6.7037468 4.5901494 -0.95011276 1
2.5880177 1.772052 -1.5754677 9
7.4251323 5.0840921 -0.83955735 3
2.7042205 1.8516177 -1.551316 12
8.4022427 5.7531333 -0.71207404 0
2.8402383 1.9447511 -1.5325837 8
9.6070833 6.578105 -0.54297644 2
2.9921663 2.0487781 -1.5147123 13
11.322458 7.752646 -0.31859139 1
3.0989714 2.1219091 -1.4665958 16
13.886662 9.5083923 0 1
3.157238 2.1618052 -1.3927059 11
16.989462 11.632923 0.47804958 13
3.2283983 2.2105296 -1.3220831 10
19.819143 13.570446 1.1201452 17
3.2908332 2.2532797 -1.2445207 12
20.419556 13.981557 1.7305186 83
3.3597839 2.3004911 -1.1675999 14
20.367769 13.946097 2.3029771 13
3.3780477 2.3129966 -1.0717602 12
72.111992 49.376091 10.220333 51
3.409044 2.3342202 -0.97895473 11
72.218758 49.449196 12.300954 50
3.4252603 2.3453238 -0.88237733 11
3.4201541 2.3418274 -0.78097165 14
2.26825 1.5438187 -1.6271957 1
3.4441028 2.3441288 -0.68447286 10
2.3639519 1.6089555 -1.606672 4
6.0906997 4.1454587 -1.035448 1
2.4831944 1.6901144 -1.5971423 6
6.7148933 4.5702977 -0.94988048 1
2.5973873 1.7678365 -1.5781609 9
7.4244823 5.0532589 -0.83788532 3
2.7093794 1.8440607 -1.551316 12
8.4001293 5.7173047 -0.71053946 0
2.8486779 1.9388701 -1.5342107 8
9.6188059 6.5467615 -0.54260379 2
2.9993997 2.0414546 -1.5154831 13
11.324224 7.7075047 -0.31803432 1
3.1279852 2.1289728 -1.4775079 16
13.891661 9.454957 0 1
3.1710298 2.1582696 -1.3961263 11
17.106173 11.642821 0.4804171 11
3.2392564 2.2047062 -1.3240038 10
19.865211 13.520681 1.1206111 17
3.3081601 2.2516034 -1.2486911 12
20.598707 14.019914 1.7423772 78
3.372551 2.2954292 -1.169805 12
20.485643 13.94296 2.3118947 26
3.3988869 2.313354 -1.0763186 12
72.136246 49.097446 10.204304 51
3.4284179 2.3334534 -0.98264366 11
72.534996 49.368847 12.331294 50
3.4382634 2.3401544 -0.88404059 6
3.4526751 2.3499634 -0.78689641 12
2.2682786 1.5345862 -1.6241353 1
3.4751554 2.3510892 -0.68933654 15
2.374213 1.6062553 -1.6105907 4
3.6695538 2.4826081 -0.62266046 1
2.4864423 1.6821831 -1.5962034 6
6.7111778 4.5403953 -0.94755739 1
2.5963933 1.7565696 -1.5745699 8
7.4270205 5.0246925 -0.83658487 3
2.7175133 1.8385125 -1.5530273 10
