# .PCD v0.7 - Point Cloud Data file format
VERSION 0.7
FIELDS x y z intensity
SIZE 4 4 4 4
TYPE F F F F
COUNT 1 1 1 1
WIDTH 1417
HEIGHT 1
VIEWPOINT 0 0 0 1 0 0 0
POINTS 1417
DATA ascii
4.4644604 -1.9933103 -1.2799329 1
4.7464638 -2.1192203 -1.2316477 1
5.1089048 -2.2810445 -1.189255 2
5.5006394 -2.4559476 -1.1349823 2
2.4206867 -1.0889156 -1.5741462 1
5.935823 -2.6701553 -1.069347 1
2.5219729 -1.1344779 -1.5537695 1
6.4246659 -2.8900552 -0.9900775 1
2.6427579 -1.1888115 -1.5408057 3
7.0562162 -3.1741502 -0.904814 1
2.7643058 -1.2434883 -1.5225033 2
7.7618732 -3.4915812 -0.79404032 3
2.8800983 -1.2955761 -1.4948423 3
8.7391119 -3.9311798 -0.67008072 1
3.0276034 -1.3619293 -1.478081 3
9.9042511 -4.4553027 -0.50645506 1
3.1859863 -1.4331759 -1.4592113 3
11.360173 -5.1102309 -0.28920653 3
3.3402634 -1.5025755 -1.4302219 2
12.255147 -5.5128241 0 14
3.5118961 -1.5797824 -1.4015985 3
14.135483 -6.3586693 0.35986018 17
3.7168717 -1.6719881 -1.3771433 1
14.566682 -6.552639 0.74486905 31
3.938494 -1.771682 -1.3475854 2
14.637966 -6.5847049 1.1223816 52
4.1973934 -1.8881446 -1.3197517 1
4.4482894 -2.0010073 -1.2768939 1
4.7547255 -2.1388535 -1.2353367 1
5.1078677 -2.2977102 -1.1905024 2
5.4991374 -2.4737179 -1.1360933 2
2.4109874 -1.0936725 -1.5700653 1
5.9363909 -2.6928666 -1.0709683 1
2.5120444 -1.139514 -1.5498507 1
6.4371982 -2.9200428 -0.99341768 1
2.648659 -1.2014852 -1.5464394 3
7.0353551 -3.1913788 -0.90342021 1
2.762013 -1.2529047 -1.5234009 2
7.7708139 -3.5249977 -0.79608399 3
2.8661361 -1.3001372 -1.4897083 3
8.7303524 -3.9602637 -0.67035973 1
3.0133262 -1.3669055 -1.4732002 3
9.9156761 -4.4979506 -0.50775939 2
3.1781063 -1.441653 -1.4576696 3
11.353166 -5.1500244 -0.28943864 5
3.3372228 -1.5138315 -1.4309493 2
12.250517 -5.5570812 0 16
3.5171847 -1.5954659 -1.4057027 1
14.046243 -6.3716588 0.35809615 19
3.7185035 -1.6867881 -1.3797042 1
14.505998 -6.5802126 0.74281943 21
3.941602 -1.7879901 -1.3505642 2
14.619025 -6.6314845 1.1225212 66
4.2054472 -1.9076755 -1.324162 1
4.4648867 -2.0253625 -1.2834784 1
4.7586164 -2.1586041 -1.2381034 1
5.0952792 -2.3113213 -1.189255 2
5.4823895 -2.4869223 -1.1342418 2
2.4204407 -1.1061209 -1.5782268 1
5.9324379 -2.7110739 -1.0716166 1
2.5151963 -1.1494235 -1.5537695 1
6.4254165 -2.9363608 -0.99286097 1
2.6292324 -1.201537 -1.53705 1
7.0426769 -3.2184436 -0.9055109 1
2.7536273 -1.2583843 -1.5207078 2
7.7591295 -3.5458565 -0.7958982 3
2.8740036 -1.3133954 -1.4956979 3
8.7410345 -3.9945788 -0.67203391 1
3.0261154 -1.3829092 -1.4813349 3
9.9085283 -4.5281138 -0.50803888 1
3.1623187 -1.4451529 -1.4522737 3
11.349652 -5.1866951 -0.28971717 5
3.3363714 -1.5246935 -1.4324043 4
12.249504 -5.5979195 0 16
3.5075877 -1.6029379 -1.4036506 1
13.964746 -6.3817706 0.35647142 19
3.7172248 -1.6987402 -1.3809847 1
14.496651 -6.6248469 0.74328518 27
3.9418035 -1.8013709 -1.3523515 2
14.469797 -6.6125746 1.1124762 54
4.193109 -1.9162154 -1.3219568 1
88.646782 -40.51083 9.0930071 21
4.4609737 -2.0386271 -1.2839848 1
4.7561097 -2.173502 -1.2390256 1
5.097702 -2.3296065 -1.1913341 2
5.5040255 -2.5152929 -1.1401668 2
2.4064043 -1.1078402 -1.5710856 1
5.9212589 -2.7259796 -1.0709683 1
2.5198958 -1.1600885 -1.5586678 2
6.4207897 -2.9559491 -0.99341768 1
2.6306789 -1.2110898 -1.5398668 1
7.0408792 -3.2414207 -0.90644008 1
2.7501025 -1.2660691 -1.5207078 2
7.7600508 -3.5725069 -0.79701293 3
2.8752508 -1.3236839 -1.4982649 3
8.7389069 -4.0231442 -0.6727314 1
3.0122838 -1.3867699 -1.476454 1
9.9176216 -4.5657911 -0.50915688 2
3.1565945 -1.4532064 -1.4515029 3
11.353286 -5.2267303 -0.2901814 10
3.3304083 -1.5332254 -1.4316767 4
12.23564 -5.6329412 0 19
3.5065124 -1.6142987 -1.4050188 3
13.883302 -6.3914781 0.35484666 16
3.7090249 -1.7075297 -1.3797042 1
14.345617 -6.6043148 0.73648405 36
3.9298201 -1.8091775 -1.3499684 1
14.445837 -6.6504531 1.1120577 61
4.1877418 -1.9279174 -1.3219568 1
4.4499907 -2.0486493 -1.2824653 1
4.7358799 -2.1802645 -1.2353367 1
5.0840683 -2.3405607 -1.1896708 2
5.4880533 -2.5265439 -1.1383152 2
2.393744 -1.1106311 -1.5649644 1
5.9131446 -2.743536 -1.0709683 1
2.5101161 -1.1646246 -1.5547491 1
6.4191771 -2.9783211 -0.99453104 1
2.6302779 -1.2203764 -1.5417447 1
7.0456462 -3.2689855 -0.90829849 1
2.7382276 -1.270462 -1.5162194 2
7.7620606 -3.601382 -0.79831338 3
2.8713107 -1.332209 -1.4982649 3
8.7450294 -4.0574527 -0.67412657 1
3.0098133 -1.3964703 -1.4772676 3
9.9112806 -4.5985608 -0.50952959 2
3.1606393 -1.4664494 -1.4553572 3
11.28513 -5.2359886 -0.28883514 9
3.3241546 -1.542316 -1.4309493 4
12.202545 -5.661644 0 19
3.4965925 -1.6223224 -1.4029666 1
13.802608 -6.4040294 0.35326833 17
3.7039421 -1.718527 -1.3797042 1
14.34227 -6.6544175 0.73732257 42
3.9313629 -1.824044 -1.3523515 1
14.290305 -6.6303072 1.1015942 48
4.1907229 -1.9443799 -1.3247132 1
4.4368725 -2.0585864 -1.2804393 1
4.7329206 -2.1959445 -1.236259 1
5.0824251 -2.3581049 -1.1909182 2
5.4751835 -2.5403342 -1.1372042 2
2.4062173 -1.124595 -1.5751662 1
5.9126115 -2.7633803 -1.0722651 1
2.5147521 -1.175321 -1.5596476 1
6.4054518 -2.9937193 -0.99369603 1
2.6284595 -1.2284645 -1.5426837 3
7.03649 -3.2886477 -0.90829849 1
2.7443836 -1.2826439 -1.5216055 2
7.7483654 -3.6213574 -0.79794174 3
2.8659418 -1.3394567 -1.4974093 3
8.7372799 -4.0835466 -0.67440557 1
2.9959702 -1.4002281 -1.4723867 1
9.9146891 -4.6338334 -0.51036805 3
3.1598754 -1.4768325 -1.4568988 3
11.216123 -5.2420845 -0.28744251 9
3.3248978 -1.5539591 -1.4331318 4
12.204806 -5.7041664 0 19
3.5005615 -1.6360592 -1.4063867 1
13.73033 -6.417151 0.35187569 20
3.7025611 -1.7304678 -1.3809847 3
14.173409 -6.6242328 0.7295897 40
3.927983 -1.8358234 -1.3529472 2
14.262696 -6.6659636 1.1008967 65
4.1800518 -1.9536328 -1.3230593 1
4.4293537 -2.0701492 -1.2799329 1
4.7355852 -2.2132728 -1.2385645 1
5.0864539 -2.3772585 -1.1934133 2
5.4805317 -2.5614388 -1.1397964 2
2.3964481 -1.1292158 -1.5710856 1
5.9235392 -2.7911952 -1.0758318 1
2.5078926 -1.181729 -1.5576881 1
6.4121404 -3.0214257 -0.99620116 1
2.6325743 -1.2404795 -1.5473784 3
7.0369058 -3.3158178 -0.90969229 1
2.7451909 -1.2935449 -1.5242987 1
7.7549648 -3.65417 -0.79979968 3
2.8600843 -1.3476831 -1.4965537 3
8.7352371 -4.1160784 -0.67524266 1
3.0080848 -1.4174213 -1.4805214 3
9.9271908 -4.6777315 -0.51176554 1
3.1535509 -1.4859656 -1.4561279 3
11.150764 -5.2542839 -0.28618914 11
3.3233702 -1.5659852 -1.4345868 4
12.194062 -5.7458906 0 18
3.5107055 -1.6542583 -1.4125432 1
13.648607 -6.4312778 0.35029736 17
3.705677 -1.7461298 -1.3841859 3
14.154335 -6.6695786 0.72968286 42
3.9170156 -1.8457133 -1.3511599 1
14.113544 -6.6503577 1.0909913 33
4.177372 -1.9683943 -1.324162 1
4.4350796 -2.0898271 -1.2834784 1
4.7338901 -2.2306278 -1.2399478 1
5.08073 -2.3940601 -1.1938291 2
5.4706807 -2.5778062 -1.1394261 2
2.3948395 -1.1366411 -1.5721058 1
5.9014583 -2.8009562 -1.0732379 1
2.5077333 -1.1902231 -1.5596476 2
6.4054666 -3.0401692 -0.99647945 1
2.6211236 -1.2440404 -1.5426837 3
7.0240293 -3.3337522 -0.90922773 1
2.7431824 -1.3019722 -1.5251964 1
7.7555237 -3.6809347 -0.80091435 3
2.8563097 -1.3556646 -1.4965537 3
8.7309179 -4.1438775 -0.67580074 1
3.0041146 -1.4258161 -1.4805214 3
9.9231138 -4.7097187 -0.51223141 1
3.1543906 -1.4971402 -1.4584405 3
11.090888 -5.2639689 -0.28502858 11
3.317301 -1.5744609 -1.4338592 4
12.18881 -5.7850657 0 19
3.4941871 -1.6584147 -1.4077549 3
13.569179 -6.4402175 0.34871903 17
3.7144799 -1.7629703 -1.3893077 1
14.012924 -6.6508288 0.72334754 38
3.9256439 -1.8631932 -1.3559259 2
14.085905 -6.6854672 1.0902938 69
4.1666484 -1.9775791 -1.3225081 1
4.4344702 -2.1046929 -1.2849978 1
4.7276425 -2.2438385 -1.2399478 1
5.0863957 -2.4141104 -1.1967398 2
5.4723382 -2.5972869 -1.1412777 2
2.3992159 -1.1474528 -1.5772067 1
5.8949018 -2.8193052 -1.0735621 1
2.4978988 -1.1946491 -1.5557288 2
6.4017777 -3.0617247 -0.99731451 1
2.6174207 -1.2518119 -1.5426837 3
7.0212755 -3.3580065 -0.91015691 2
2.737695 -1.3093344 -1.5242987 2
7.7481608 -3.7056477 -0.80128592 3
2.8506439 -1.3633536 -1.4956979 1
8.7221842 -4.1714859 -0.67607975 1
2.9833879 -1.4268399 -1.4723867 1
9.9145031 -4.7417264 -0.5125109 2
3.1549294 -1.5088816 -1.4607531 3
11.024715 -5.2726979 -0.28372878 11
3.3109343 -1.5834928 -1.4331318 2
12.195047 -5.8324227 0 20
3.4960327 -1.6720182 -1.410491 1
13.495896 -6.4545689 0.34732637 17
3.6853023 -1.7625387 -1.3803444 7
13.971502 -6.6820331 0.72222954 46
3.9166539 -1.8731852 -1.3547344 1
13.950815 -6.6721392 1.0813649 13
4.1520905 -1.9857854 -1.3197517 1
4.415988 -2.1119974 -1.2814524 1
4.7192082 -2.2570162 -1.2394867 1
5.077446 -2.4283473 -1.196324 2
5.4894309 -2.6253841 -1.1464618 2
2.3896019 -1.1515791 -1.5731258 1
5.8918447 -2.8393538 -1.0745349 1
2.4943433 -1.2020552 -1.5557288 2
6.4051547 -3.0867245 -0.99926293 1
2.621649 -1.2634054 -1.5473784 1
7.0255971 -3.3857231 -0.91201532 2
2.7370181 -1.3190033 -1.526094 1
7.7461019 -3.7329435 -0.80221486 3
2.8628712 -1.3796536 -1.5042546 3
8.7205534 -4.2025437 -0.67691684 1
3.0005386 -1.4459971 -1.4829619 1
9.9147892 -4.7780609 -0.51325625 2
3.1454508 -1.5158322 -1.4584405 3
10.965793 -5.2845531 -0.28261465 12
3.3146129 -1.5973535 -1.4367692 2
12.186697 -5.8729219 0 20
3.5012147 -1.6872793 -1.4145952 1
13.415444 -6.4650707 0.34574804 17
3.6817632 -1.7742878 -1.3809847 21
13.83643 -6.6679492 0.71626681 12
3.907639 -1.8831402 -1.3535429 2
13.9022 -6.6996441 1.0791327 56
4.1721592 -2.0106158 -1.3280209 1
4.4341035 -2.1368501 -1.2885433 1
4.7159972 -2.2726982 -1.2404089 1
5.0525951 -2.4349091 -1.1921657 2
5.4302711 -2.6169157 -1.135723 2
2.3850312 -1.1570804 -1.5721058 1
5.8968201 -2.8607988 -1.0768045 1
2.4880502 -1.2070593 -1.5537695 1
6.4006157 -3.1052115 -0.99981964 1
2.6119771 -1.2671815 -1.5436226 1
7.0238581 -3.407573 -0.91294456 1
2.7255156 -1.3222638 -1.5216055 1
7.7470527 -3.7584255 -0.80332953 3
2.8511174 -1.3831986 -1.4999763 3
8.7292662 -4.2349391 -0.67845148 1
2.9803042 -1.4458727 -1.4748272 1
9.9202194 -4.8127217 -0.51418787 2
3.139811 -1.5232562 -1.4576696 3
10.915942 -5.2957888 -0.28168622 13
3.3020387 -1.6019598 -1.4331318 2
12.180278 -5.9091716 0 19
3.4934037 -1.6947989 -1.4132272 1
13.337309 -6.4704971 0.34416971 20
3.675401 -1.7830937 -1.3803444 22
3.8992603 -1.8916974 -1.3523515 2
13.845121 -6.7168589 1.0760634 14
4.1616917 -2.0190139 -1.326367 1
4.428494 -2.1484513 -1.2885433 1
4.6960235 -2.2782412 -1.23672 1
5.0620446 -2.4558136 -1.1959082 2
5.4375477 -2.6379862 -1.1386855 2
2.3908603 -1.1686844 -1.5782268 1
5.8953981 -2.8817492 -1.0781015 1
2.4954236 -1.2197962 -1.5606272 2
6.3967128 -3.1267984 -1.0006547 1
2.608206 -1.2749258 -1.5436226 3
7.0119324 -3.427526 -0.91271222 1
2.7296088 -1.3342692 -1.526094 1
7.7501793 -3.7883909 -0.80481583 3
2.8453767 -1.3908581 -1.4991206 3
8.7327938 -4.2687058 -0.67970705 1
2.9842086 -1.4587209 -1.4788945 1
9.9238462 -4.8509083 -0.51511961 2
3.1352777 -1.5325656 -1.4576696 3
10.846291 -5.3018112 -0.28029358 13
3.2972713 -1.6117501 -1.4331318 2
12.193236 -5.9602165 0 16
3.4816058 -1.7018553 -1.410491 1
13.258774 -6.4810653 0.34263778 20
3.6683924 -1.7931591 -1.3797042 21
13.718204 -6.7056413 0.71207428 8
3.9056373 -1.9091275 -1.3565217 1
13.731925 -6.712348 1.0688087 50
4.1608648 -2.0338862 -1.3280209 1
4.4099321 -2.1556337 -1.2849978 1
4.7014823 -2.2981472 -1.2399478 1
5.0406747 -2.463949 -1.1925815 2
5.4349937 -2.6566975 -1.1397964 2
2.3827527 -1.173493 -1.5751662 1
5.8832812 -2.8974848 -1.077453 1
2.4886646 -1.2256541 -1.5586678 2
6.3945136 -3.1492639 -1.0017681 1
2.6155009 -1.2881203 -1.5501952 3
7.012424 -3.4535813 -0.91410607 1
2.7256379 -1.3423622 -1.526094 2
7.7460508 -3.814889 -0.80555898 3
2.8379941 -1.397697 -1.4974093 3
8.72367 -4.296361 -0.67998606 1
2.9831455 -1.4691833 -1.4805214 3
9.9219561 -4.8865104 -0.51577175 3
3.1373394 -1.545123 -1.4607531 3
10.778494 -5.308351 -0.27894735 14
3.3025024 -1.6264648 -1.4374967 2
12.189852 -6.003437 0 15
3.4799135 -1.7138388 -1.4118592 3
13.187467 -6.4947572 0.34129155 17
3.6647553 -1.8048725 -1.3803444 19
3.8965299 -1.9190202 -1.3553301 1
13.728058 -6.7609954 1.0700643 45
4.1496372 -2.0436742 -1.326367 1
4.41046 -2.172128 -1.2870239 1
4.7155933 -2.3224046 -1.2454813 1
5.0438719 -2.4840801 -1.1950765 2
5.4323773 -2.6754169 -1.1409073 2
2.3852177 -1.1840323 -1.579247 1
5.8759174 -2.9168308 -1.0777773 1
2.478555 -1.2303653 -1.5547491 2
6.3916845 -3.1728597 -1.0028814 1
2.6193502 -1.3002567 -1.55489 3
7.008657 -3.4791276 -0.91503525 1
2.7214074 -1.3509183 -1.526094 2
7.7358117 -3.8400903 -0.80574477 3
2.8352082 -1.4074095 -1.4982649 3
8.711916 -4.3246326 -0.68012559 1
2.9768789 -1.4777354 -1.479708 3
9.9155025 -4.9220982 -0.51623762 3
3.1341228 -1.5557921 -1.4615239 3
10.7152 -5.3190718 -0.27774039 14
3.2957077 -1.6360035 -1.4367692 4
12.201386 -6.0568209 0 16
3.4812455 -1.7281052 -1.4145952 3
13.115062 -6.5103731 0.33994535 17
3.662461 -1.8180615 -1.3816248 17
13.608987 -6.7555599 0.708534 42
3.8990326 -1.9354966 -1.358309 1
13.561997 -6.732234 1.0587637 45
4.1535292 -2.0618298 -1.3296747 1
4.4053473 -2.1868334 -1.2875303 1
4.71176 -2.338938 -1.2464035 1
5.0535665 -2.5086122 -1.1992347 2
5.4327478 -2.6968393 -1.1427588 2
2.3788247 -1.1891502 -1.5772067 1
5.873045 -2.9358752 -1.07875 1
2.4782288 -1.2388412 -1.5567085 2
6.3898854 -3.1942384 -1.0039948 1
2.6062317 -1.3028286 -1.5492563 3
7.006021 -3.5022385 -0.91596442 1
2.7144272 -1.3569144 -1.5242987 2
7.7393069 -3.8688004 -0.80723101 3
2.8361177 -1.4177463 -1.500832 3
8.7265749 -4.3623257 -0.68221831 1
2.9727407 -1.4860426 -1.479708 3
9.928524 -4.9631677 -0.51763511 6
3.1380196 -1.568664 -1.4653782 3
10.652017 -5.3248343 -0.27648702 15
3.297792 -1.6485325 -1.439679 2
12.198736 -6.0980239 0 16
3.4646387 -1.7319375 -1.409807 3
13.055695 -6.5264082 0.33887762 16
3.6590652 -1.8291293 -1.3822652 17
13.445323 -6.7211795 0.70098746 38
3.8953199 -1.9472306 -1.3589047 1
13.537791 -6.7674036 1.0583452 49
4.1425962 -2.0708416 -1.3280209 1
13.451611 -6.7243228 1.4030399 1
4.4096069 -2.2043173 -1.2905693 1
4.7052102 -2.3520865 -1.2464035 1
5.0430417 -2.5209651 -1.1984031 2
5.4392595 -2.7190304 -1.1457212 2
2.3820591 -1.1980509 -1.5812874 1
5.881722 -2.9581976 -1.0816681 1
2.4798675 -1.2472433 -1.5596476 2
6.383831 -3.2107322 -1.0042732 1
2.6046181 -1.3099864 -1.5501952 1
7.0009918 -3.521132 -0.91642904 1
2.7079103 -1.3619369 -1.5225033 1
7.7333884 -3.8894889 -0.80760252 3
2.8310301 -1.4238597 -1.4999763 3
8.7265844 -4.3890142 -0.6830554 1
2.9723651 -1.4949439 -1.4813349 3
9.9110126 -4.9847198 -0.51735562 9
3.1176901 -1.5680346 -1.4576696 3
10.599676 -5.3310814 -0.27546576 16
3.2954183 -1.6574225 -1.4404066 2
12.199881 -6.1359005 0 16
3.4704707 -1.7454647 -1.4139113 3
13.04864 -6.5627823 0.33910975 11
3.6562772 -1.8389158 -1.3829054 17
13.432429 -6.7558079 0.70117384 48
3.8854337 -1.9541694 -1.3571174 1
13.405359 -6.7421927 1.0492768 26
4.1426764 -2.083549 -1.3296747 1
13.347968 -6.7133279 1.3939365 6
4.4076648 -2.2168243 -1.2915825 1
53.885456 -27.101559 7.0536003 22
4.6942329 -2.3609531 -1.2450202 1
53.438042 -26.876534 8.4066124 20
5.0438571 -2.5367959 -1.2000664 2
5.4396229 -2.7358451 -1.1472024 2
2.3736804 -1.2031951 -1.5782268 1
5.8812008 -2.9811225 -1.0832894 1
2.4743814 -1.2542394 -1.5586678 2
6.3825455 -3.235249 -1.0056649 1
2.5989146 -1.3173641 -1.5492563 1
7.0058427 -3.5511923 -0.91851979 1
2.7195594 -1.3785177 -1.5314803 2
7.7371173 -3.9218681 -0.80927467 3
2.8217061 -1.4302948 -1.4974093 3
8.7198706 -4.4200158 -0.68361342 1
2.962765 -1.5017961 -1.4788945 1
9.9095602 -5.0230579 -0.51810092 9
3.1209793 -1.5819935 -1.4615239 3
10.540073 -5.342659 -0.27435163 14
3.2835484 -1.6643981 -1.4374967 2
12.193031 -6.1805272 0 14
3.4649699 -1.756359 -1.4139113 5
13.077894 -6.629055 0.34040955 10
3.6555524 -1.8529633 -1.3848261 17
13.284619 -6.7338419 0.69455898 11
3.8894928 -1.9715453 -1.3606919 1
13.353859 -6.768939 1.0469052 57
4.1326809 -2.094815 -1.3285722 1
4.40413 -2.2324097 -1.2925954 1
53.702602 -27.221317 7.0408235 22
4.6867929 -2.375689 -1.2450202 1
5.0498223 -2.5597048 -1.203393 2
5.4134703 -2.7440345 -1.1434994 2
2.3672469 -1.2082548 -1.5761864 1
5.8746109 -2.9984314 -1.0836136 1
2.4755285 -1.2635224 -1.5616069 2
6.3699574 -3.2512586 -1.0051082 1
2.5952258 -1.3246164 -1.5492563 1
6.9905901 -3.568033 -0.9178229 1
2.7061479 -1.3812318 -1.526094 2
7.7332296 -3.9470799 -0.8100177 3
2.822531 -1.4406343 -1.4999763 3
8.7110481 -4.4461632 -0.68389249 1
2.9585595 -1.5100639 -1.4788945 1
9.9026117 -5.0543432 -0.51847357 9
3.1198366 -1.5923805 -1.4630656 3
10.485933 -5.3520737 -0.27333036 14
3.2888436 -1.6786426 -1.4418615 2
12.195319 -6.2245531 0 16
3.4751174 -1.7737176 -1.4200677 3
13.103854 -6.6882739 0.34157008 12
3.6453006 -1.8605801 -1.3829054 19
3.8720684 -1.9763235 -1.3565217 1
4.1285267 -2.1072211 -1.3291234 1
4.3875389 -2.2394223 -1.2895563 1
4.6818743 -2.3896525 -1.2454813 1
53.455784 -27.284103 8.4347258 20
5.0200028 -2.5622351 -1.1979872 2
5.404036 -2.7582476 -1.1431291 2
2.3728309 -1.2199929 -1.5823076 1
5.870954 -3.0185559 -1.0845864 1
2.4671166 -1.2684699 -1.5586678 2
6.3761349 -3.278295 -1.0076133 1
2.6007071 -1.3371557 -1.55489 1
6.9976392 -3.5978417 -0.92014587 1
2.7052166 -1.3908894 -1.5278894 2
7.7338815 -3.9763813 -0.81131822 3
2.8230672 -1.4514823 -1.5025432 3
8.7226591 -4.4847622 -0.68584567 1
2.9524412 -1.518 -1.478081 1
9.9106684 -5.0955782 -0.51968473 6
3.1183808 -1.603318 -1.4646072 3
10.455781 -5.3758483 -0.27295896 11
3.2722507 -1.6824304 -1.4367692 2
12.178576 -6.2616243 0 14
3.461482 -1.7797238 -1.4166474 7
13.137299 -6.7545524 0.34296274 11
3.6448195 -1.8739868 -1.3848261 17
13.213633 -6.7938004 0.69288194 11
3.878073 -1.9939144 -1.3606919 1
4.1290956 -2.122978 -1.3313285 1
13.11944 -6.7453704 1.3762871 44
4.3774338 -2.2506611 -1.2885433 1
4.6886091 -2.4106522 -1.2491702 1
5.0332561 -2.5878527 -1.2029772 2
5.4342828 -2.7940409 -1.1512759 2
2.3659315 -1.2258584 -1.5802672 1
5.8754606 -3.0442483 -1.0871803 1
2.4739563 -1.2818294 -1.5655255 2
6.3763556 -3.3037767 -1.0092834 1
2.5917897 -1.3428823 -1.5520731 3
6.9880657 -3.6207216 -0.92037815 1
2.7024207 -1.4002033 -1.5287871 2
7.7231193 -4.0015745 -0.81150401 3
2.8168881 -1.4595124 -1.5016876 3
8.7244692 -4.5204034 -0.68710124 2
2.9573913 -1.5323111 -1.4829619 1
9.9034815 -5.1312842 -0.5201506 4
3.1051354 -1.6088618 -1.4607531 3
10.451268 -5.4151082 -0.2732839 8
3.2818365 -1.7004157 -1.4433165 2
12.183705 -6.3127351 0 14
13.155069 -6.8160272 0.34398401 13
3.6405962 -1.8862997 -1.3854662 7
3.8802655 -2.0104792 -1.3636706 1
4.1138711 -2.1315172 -1.3285722 1
13.052213 -6.7627344 1.3714566 39
4.3858032 -2.2724133 -1.2931019 1
4.6810126 -2.42537 -1.2491702 1
5.0303121 -2.6063523 -1.2042246 2
5.4429293 -2.8201411 -1.1549789 2
2.362499 -1.2324607 -1.5802672 1
5.8616867 -3.0579054 -1.0862075 1
2.4626377 -1.2847008 -1.5606272 2
6.3706169 -3.3234026 -1.0098401 1
2.584898 -1.3484812 -1.5501952 3
6.9814496 -3.6420598 -0.92084283 1
2.6921618 -1.4044381 -1.5251964 2
7.722507 -4.0286522 -0.81261867 3
2.814404 -1.4682091 -1.5025432 3
8.7241936 -4.551209 -0.68807787 2
2.9466209 -1.5371836 -1.479708 1
9.9121399 -5.1709323 -0.52136177 3
3.1039031 -1.619234 -1.4622947 3
10.462696 -5.4581451 -0.27398026 10
3.2589056 -1.7000952 -1.4353142 2
12.183762 -6.3559847 0 15
13.213984 -6.8934278 0.34602657 11
3.6403542 -1.899088 -1.3873869 1
13.065037 -6.8157253 0.68719876 39
3.8712509 -2.0195415 -1.3624792 1
13.026148 -6.7954383 1.0273733 8
4.1215386 -2.150111 -1.3329824 1
12.978544 -6.7706046 1.3656974 38
4.3845859 -2.2873363 -1.2946215 1
4.6845741 -2.4438334 -1.2519369 1
54.752537 -28.563124 8.6791134 22
5.0247483 -2.6212943 -1.2046404 2
5.4123793 -2.8235123 -1.150165 2
2.3638334 -1.2410403 -1.5833278 1
5.8746295 -3.0842495 -1.0900985 1
2.4577222 -1.290333 -1.5596476 2
6.3636479 -3.3409901 -1.0101185 1
2.5876131 -1.3585272 -1.553951 3
6.9824438 -3.6658652 -0.92223662 1
2.6963878 -1.4156352 -1.5296849 2
7.7260399 -4.0562615 -0.81410503 3
2.8233552 -1.4822946 -1.5093886 3
8.7157822 -4.5758877 -0.68835688 2
2.9490573 -1.5482898 -1.4829619 1
9.9321775 -5.2145095 -0.52313191 3
3.1078229 -1.6316435 -1.466149 3
10.469616 -5.4966712 -0.27453732 12
3.2610419 -1.7120852 -1.4382242 2
12.18833 -6.3990159 0 19
3.442807 -1.8075142 -1.4152793 60
13.247231 -6.9549522 0.34737277 10
3.6571791 -1.9200619 -1.39571 1
12.918021 -6.7821131 0.68039763 20
3.8744023 -2.0341067 -1.3654579 1
4.1107888 -2.1582124 -1.3313285 1
12.904354 -6.7749376 1.3597523 39
4.3974261 -2.3087006 -1.300193 1
4.679883 -2.4569936 -1.252398 1
5.0074763 -2.6289837 -1.2021455 2
5.3980083 -2.8340178 -1.1486837 2
2.3494959 -1.2424195 -1.5761864 1
5.8549848 -3.0961308 -1.088153 1
2.4692967 -1.3057704 -1.5694443 2
6.3624611 -3.3644855 -1.0115101 1
2.5773263 -1.3628968 -1.5501952 1
6.9855847 -3.693995 -0.92409497 1
2.6984951 -1.4269712 -1.5332756 2
7.7210112 -4.0828905 -0.81484812 3
2.7981699 -1.4796795 -1.4982649 3
8.7004023 -4.6007953 -0.68821734 3
2.9428353 -1.5561788 -1.4821484 3
9.9290237 -5.2504935 -0.5237841 3
3.1013367 -1.6399949 -1.4653782 1
10.455028 -5.528645 -0.27458373 13
3.2674758 -1.7278496 -1.4433165 2
12.183434 -6.4426308 0 18
3.4440749 -1.8212357 -1.4180156 45
13.223002 -6.9923573 0.34727994 5
3.6397412 -1.9247044 -1.3912284 1
12.878414 -6.8101382 0.67937273 54
3.8565357 -2.039346 -1.3612876 1
4.1230621 -2.1802857 -1.3373926 1
12.833145 -6.7862 1.3543645 38
4.3734531 -2.3126934 -1.2951279 1
4.674293 -2.4717782 -1.2528592 1
5.0134892 -2.6511459 -1.2054721 2
54.146397 -28.632751 10.063146 20
5.3982625 -2.854615 -1.1505352 2
2.3488357 -1.2510023 -1.5782268 1
5.8544817 -3.1181278 -1.0897741 1
2.4530997 -1.3065339 -1.5616069 1
6.3699312 -3.3926587 -1.0142937 1
2.5779471 -1.3730283 -1.553012 3
6.9745936 -3.7147052 -0.92409497 1
2.6910946 -1.4332912 -1.5314803 2
7.7211666 -4.1123338 -0.81614858 3
2.8049364 -1.4939238 -1.5042546 3
8.7060843 -4.6369066 -0.68975204 2
2.9478807 -1.5700569 -1.4870292 1
9.9345617 -5.2911997 -0.52490211 3
3.1013436 -1.6517919 -1.4676906 3
10.433283 -5.5568218 -0.27444446 13
3.2672679 -1.7401642 -1.4454989 4
12.180151 -6.4872127 0 20
3.4353383 -1.8296793 -1.4166474 41
3.6306694 -1.9337137 -1.3899479 1
12.826411 -6.8314142 0.67769575 7
3.8622634 -2.0570619 -1.3654579 1
4.1131811 -2.190702 -1.3362899 1
12.761983 -6.7970991 1.3489767 38
4.3734031 -2.3292973 -1.2971539 1
4.6652207 -2.4847212 -1.252398 1
55.820801 -29.730453 8.8884296 24
5.0194139 -2.6733663 -1.2087986 2
54.226685 -28.881416 10.093948 20
5.4244637 -2.8890979 -1.1579412 2
2.342082 -1.2563397 -1.5761864 1
5.8434653 -3.1345518 -1.08945 1
2.4568954 -1.3179277 -1.5665053 1
6.3546014 -3.4087353 -1.0134586 1
2.5785306 -1.3831753 -1.5558288 1
6.9687929 -3.7381997 -0.92479193 1
2.6773806 -1.4362005 -1.526094 2
7.712441 -4.1371074 -0.81652015 3
2.8116426 -1.5082213 -1.5102443 3
8.7045956 -4.6693192 -0.6907286 2
2.9480398 -1.5813874 -1.4894696 1
9.9170589 -5.3197088 -0.52480894 7
3.0948031 -1.6601142 -1.4669198 3
10.42556 -5.5924788 -0.27467656 13
3.2571654 -1.7472086 -1.4433165 4
12.196099 -6.5422316 0 16
3.4298944 -1.8398639 -1.4166474 33
80.465523 -43.163315 2.1199813 22
3.6499617 -1.9579124 -1.3995514 1
3.8645556 -2.0730247 -1.3684367 1
12.834487 -6.8846755 1.0184445 3
4.1083574 -2.2038052 -1.3368413 1
12.689116 -6.8066955 1.3434033 39
4.3681774 -2.3431778 -1.2976604 1
56.413788 -30.261484 7.4863772 26
4.6612582 -2.500392 -1.2533203 1
5.0080128 -2.686398 -1.207967 2
5.3985481 -2.895889 -1.1542382 2
2.3504519 -1.2698245 -1.584348 1
5.8480306 -3.1593804 -1.0920439 1
2.4437697 -1.3202391 -1.5606272 1
6.356657 -3.4341643 -1.0154071 1
2.5588784 -1.3824263 -1.5464394 1
6.9734001 -3.7673581 -0.92688262 1
2.6793973 -1.4475361 -1.5296849 2
7.7194042 -4.1703844 -0.81856382 3
2.7944312 -1.5096829 -1.5033989 3
8.7082567 -4.7046089 -0.69212377 1
2.9401197 -1.5883907 -1.4878427 1
9.9047461 -5.3510089 -0.52499527 12
3.0947349 -1.671921 -1.4692323 3
10.415958 -5.6271896 -0.27486226 12
3.2601624 -1.7612927 -1.4469539 4
12.166077 -6.5726857 0 20
3.4277277 -1.8518194 -1.4180156 30
3.6408024 -1.9669323 -1.398271 1
12.699519 -6.8608766 0.67313057 45
3.8567076 -2.0835743 -1.3678409 1
12.670065 -6.844964 1.0070045 6
4.0933433 -2.2114162 -1.3340849 1
12.621559 -6.818759 1.3383871 39
4.3595037 -2.3552086 -1.2971539 1
4.6658044 -2.5206864 -1.2565482 1
56.157436 -30.338884 8.970542 24
5.0069041 -2.7049646 -1.2096304 2
55.403488 -29.931564 10.345883 21
5.3847446 -2.9090917 -1.1531273 2
2.3453856 -1.2755612 -1.5833278 1
5.8270483 -3.1690984 -1.0897741 1
2.4507952 -1.3328894 -1.5674849 1
6.3400822 -3.4481168 -1.0142937 1
2.5705211 -1.3980035 -1.5558288 3
6.9785576 -3.7953579 -0.92897332 1
2.6753445 -1.4550127 -1.5296849 2
7.7059789 -4.1909733 -0.81837803 3
2.7965567 -1.5209353 -1.5068215 3
8.7213745 -4.7432065 -0.69421643 2
2.9453027 -1.6018323 -1.4927235 1
3.0835688 -1.6770296 -1.466149 3
10.403716 -5.6581645 -0.27495509 12
3.2585042 -1.7721699 -1.4484088 4
12.145917 -6.6056776 0 20
3.427496 -1.8640778 -1.4200677 31
60.195061 -32.737682 1.590868 22
3.6236439 -1.9707547 -1.3937893 1
12.562722 -6.8323612 0.66688842 12
3.8592601 -2.098897 -1.3708197 1
4.0888405 -2.2237566 -1.3346361 1
12.548238 -6.8244839 1.3326278 41
4.3631077 -2.3729196 -1.300193 1
4.6690049 -2.5392847 -1.2593149 1
56.114254 -30.518295 8.9772224 24
5.0096426 -2.7245438 -1.2121253 2
55.23127 -30.038076 10.329348 21
5.3955922 -2.9344466 -1.1572007 2
2.335779 -1.2788014 -1.579247 1
5.8389492 -3.1967309 -1.0936651 1
2.4531815 -1.3430774 -1.5714036 1
6.3495383 -3.4762702 -1.0173554 1
2.5666072 -1.4051763 -1.5558288 3
6.9661899 -3.8138771 -0.92874104 1
2.6728384 -1.4633361 -1.5305825 2
7.7082195 -4.2201262 -0.81986427 3
2.7811992 -1.5226619 -1.500832 3
8.7045956 -4.765626 -0.69393742 2
2.9312027 -1.6047864 -1.4878427 1
9.8063631 -5.3688264 -0.52136177 17
3.0918236 -1.6927238 -1.4723157 3
10.414182 -5.7015972 -0.27565143 13
3.2519088 -1.7803679 -1.4476814 6
12.092338 -6.6203604 0 22
3.4189801 -1.8718367 -1.4186995 28
12.106619 -6.6281791 0.32044825 4
3.6314223 -1.9881454 -1.3989112 1
12.51906 -6.8539844 0.66558409 50
3.8500347 -2.1078322 -1.3696281 1
4.0859876 -2.2370124 -1.3357387 1
12.485464 -6.8355908 1.3279833 37
4.3581614 -2.3860235 -1.3006994 1
4.6465321 -2.5439017 -1.2551647 1
4.9900031 -2.7319467 -1.2092146 2
5.371861 -2.9410076 -1.153868 2
2.3455322 -1.2932012 -1.5884286 1
5.8363514 -3.2178528 -1.094962 1
2.4339163 -1.3419316 -1.5616069 2
6.3391957 -3.4950943 -1.0173554 1
2.5639732 -1.413638 -1.5567678 3
6.9687595 -3.8422022 -0.93059939 1
2.6606593 -1.4669456 -1.526094 2
7.7078705 -4.2497087 -0.82116473 3
2.7845845 -1.5352713 -1.5051103 3
8.6956587 -4.794322 -0.69435596 4
2.9296281 -1.6152407 -1.4894696 3
9.7484016 -5.3747482 -0.51912576 13
3.0867877 -1.70189 -1.4723157 3
10.390216 -5.7286105 -0.27546576 11
12.025352 -6.6301374 0 22
3.4150567 -1.8828801 -1.4193835 28
3.6271663 -1.999826 -1.3995514 1
12.512666 -6.8988161 0.66632938 22
3.8370762 -2.1155591 -1.3672452 1
4.0911174 -2.2556238 -1.3395976 1
12.418042 -6.8466458 1.3229671 22
4.3544517 -2.4008121 -1.3017125 1
4.6423726 -2.5595565 -1.2560871 1
5.0075727 -2.7609081 -1.2154518 2
5.3786016 -2.9654739 -1.1572007 2
2.331383 -1.2939028 -1.5812874 1
5.83252 -3.2370117 -1.0959347 1
2.4362578 -1.3521076 -1.5655255 1
6.329411 -3.5127831 -1.0173554 1
2.5569274 -1.4190786 -1.55489 3
6.9684243 -3.8674314 -0.93199325 2
2.6628034 -1.477839 -1.5296849 2
7.7011971 -4.2741156 -0.82172215 3
2.7834475 -1.5447958 -1.5068215 3
8.6874695 -4.8214908 -0.69477445 4
2.9283013 -1.6251887 -1.4910966 1
9.6914301 -5.3786826 -0.51688975 15
3.0804093 -1.7096077 -1.4715449 3
10.391661 -5.7673059 -0.27592996 11
11.964822 -6.6404004 0 23
3.4114292 -1.8933215 -1.4200677 18
3.6298516 -2.0145447 -1.4027526 1
11.997251 -6.6583982 0.63987005 13
3.8411694 -2.1318247 -1.3708197 1
12.459018 -6.9146757 0.99640143 3
4.0898457 -2.2698383 -1.3412515 1
4.3409634 -2.4092073 -1.2996864 1
4.6505213 -2.5810099 -1.260237 1
5.0049744 -2.7777293 -1.2166994 2
5.3840475 -2.9881122 -1.160163 2
2.3363156 -1.3062578 -1.5874085 1
5.8223214 -3.2553194 -1.0959347 1
2.4350414 -1.3614566 -1.5674849 2
6.3356304 -3.5423157 -1.0201389 1
2.5493739 -1.4253809 -1.553012 3
6.9527721 -3.8873661 -0.93152869 1
2.6597071 -1.4870694 -1.5305825 2
7.7068501 -4.3089786 -0.8237657 3
2.7864697 -1.5579436 -1.5110998 3
8.687952 -4.857523 -0.69603008 3
2.9263704 -1.6361636 -1.4927235 1
9.6343775 -5.3866792 -0.5147469 12
3.0814664 -1.7228794 -1.4746283 3
10.385707 -5.8067546 -0.27625489 11
3.2245498 -1.8028787 -1.4425889 37
11.895021 -6.6506281 0 22
3.4021831 -1.9021953 -1.4186995 3
11.897053 -6.6517634 0.31645602 16
3.6119277 -2.0194657 -1.398271 3
11.936166 -6.6736321 0.63772714 14
3.8361194 -2.1448135 -1.3714154 1
11.949635 -6.6811628 0.95733786 8
4.0860505 -2.2845526 -1.3423541 1
4.338439 -2.4256656 -1.3012059 1
58.978935 -32.975723 7.9019651 30
4.6474853 -2.5984566 -1.2616204 1
4.9996386 -2.7953489 -1.217531 2
5.3506165 -2.9915843 -1.1549789 2
2.3326588 -1.3127769 -1.5874085 1
5.818368 -3.2744691 -1.0969075 1
2.4312303 -1.3682511 -1.5674849 2
6.3239884 -3.5590229 -1.0198606 1
2.5469227 -1.4333606 -1.553951 3
6.9505458 -3.9116378 -0.9326902 1
2.6586595 -1.496244 -1.532378 2
7.7052002 -4.3363433 -0.82488042 3
2.7726562 -1.5603993 -1.5059659 3
8.6882639 -4.8895926 -0.69714618 1
2.9265671 -1.6470174 -1.4951639 1
9.5844774 -5.3939648 -0.51288354 14
3.0702102 -1.727857 -1.4715449 3
10.38339 -5.8435783 -0.27662626 13
3.2243736 -1.8146174 -1.4447714 37
11.82063 -6.6524305 0 23
3.4115987 -1.9199841 -1.4248559 1
11.815702 -6.6496572 0.31478482 7
3.6079257 -2.0304735 -1.3989112 1
11.853065 -6.6706839 0.63427997 19
3.8251235 -2.1527083 -1.3696281 1
4.0712776 -2.2912393 -1.3395976 1
11.925706 -6.711565 1.2767068 3
4.3383937 -2.4415669 -1.303232 1
4.6385155 -2.6104701 -1.2611593 1
4.9969277 -2.8121779 -1.2187785 2
5.3764977 -3.0257928 -1.162385 2
2.3212705 -1.3154515 -1.5823076 1
5.8120613 -3.2936642 -1.097556 1
2.42716 -1.3754586 -1.5674849 1
6.3306317 -3.5875354 -1.022644 1
2.5564857 -1.4487468 -1.5624014 3
6.9458222 -3.9361603 -0.93361932 1
2.6542082 -1.5041257 -1.532378 2
7.6940327 -4.3601675 -0.82506621 4
2.7743051 -1.572184 -1.5093886 3
8.6980181 -4.9291205 -0.69909936 1
2.9232571 -1.6565943 -1.4959774 1
9.5284548 -5.3997245 -0.51074076 14
3.0763094 -1.7433282 -1.4769409 3
10.366007 -5.8743606 -0.27662626 13
3.2189755 -1.8241763 -1.4447714 33
11.753859 -6.6608491 0 22
3.4238729 -1.9402906 -1.4323803 1
3.608479 -2.0449059 -1.4014722 1
11.781076 -6.6762733 0.63148499 6
3.8270249 -2.1687546 -1.3726069 1
11.820696 -6.6987257 0.9500832 24
4.0644617 -2.3033087 -1.3395976 1
11.858963 -6.7204113 1.2716907 7
4.3277631 -2.4525204 -1.3022189 1
4.6375222 -2.6280591 -1.2630037 1
58.672932 -33.249638 9.4779673 28
4.9885621 -2.8269916 -1.2187785 2
5.3692064 -3.0427005 -1.1627553 2
2.3248277 -1.3265959 -1.5874085 1
5.8228321 -3.3226316 -1.1014469 1
2.4200394 -1.3809259 -1.5655255 2
6.3147988 -3.6033583 -1.021809 1
2.5429733 -1.4510746 -1.5567678 1
6.9461899 -3.9636433 -0.93524545 1
2.6497338 -1.5119942 -1.532378 2
7.6897097 -4.3879113 -0.82599515 3
2.7759087 -1.5839924 -1.5128112 1
8.7006836 -4.9647951 -0.70049453 2
2.9151552 -1.6634494 -1.4943506 1
9.4794226 -5.4091592 -0.50897056 15
3.0695205 -1.7515335 -1.4761699 3
10.352005 -5.907074 -0.27671912 14
3.2167847 -1.8355657 -1.4462264 31
11.685406 -6.6679401 0 24
3.4115715 -1.946715 -1.4296442 1
11.710044 -6.6819992 0.31302083 21
3.6040418 -2.0565426 -1.4021124 1
3.8238895 -2.1819925 -1.3737984 1
11.755714 -6.7080598 0.94645584 19
4.0592794 -2.3163111 -1.3401489 1
11.794002 -6.7299075 1.2668604 7
4.3137455 -2.4615147 -1.300193 1
4.6364651 -2.6456654 -1.2648482 1
4.9801521 -2.8417804 -1.2187785 2
5.3464985 -3.0508254 -1.1597928 2
2.3258221 -1.3352472 -1.590469 1
5.8124022 -3.3368819 -1.1011226 1
2.4224646 -1.3907294 -1.5694443 2
6.3087788 -3.6218503 -1.0223657 1
2.5483544 -1.4630023 -1.5624014 3
6.9375124 -3.9828043 -0.93547785 1
2.6488659 -1.5207057 -1.5341734 2
7.6885576 -4.4139771 -0.82710987 3
2.7701843 -1.5903542 -1.5119555 3
8.6928463 -4.9905362 -0.70091301 2
2.9107902 -1.6710756 -1.4943506 1
9.4323082 -5.4150591 -0.50720042 15
3.0633237 -1.7586446 -1.475399 3
10.362515 -5.9490876 -0.27741545 13
3.2103527 -1.8430535 -1.4454989 31
11.631484 -6.677599 0 21
3.4097228 -1.9575113 -1.4310122 1
11.654361 -6.6907325 0.31199953 16
3.6035745 -2.0688009 -1.4040331 1
11.653509 -6.6902432 0.62664032 18
3.8198199 -2.1929467 -1.3743942 1
11.681013 -6.7060337 0.94185191 22
4.0648727 -2.3336308 -1.3440078 1
11.727986 -6.7330008 1.2616584 15
4.3257437 -2.4833961 -1.3057644 1
4.6362743 -2.6616707 -1.2666928 1
4.9693017 -2.8528607 -1.2179468 2
59.298138 -34.042877 11.233655 22
5.3453107 -3.0687263 -1.1612741 2
2.3278074 -1.3455857 -1.5945498 1
5.8076015 -3.3570757 -1.1020954 1
2.4168179 -1.3970381 -1.5684646 2
6.3117223 -3.6484821 -1.0245925 1
2.5409448 -1.4687895 -1.5605235 3
6.9497423 -4.0172887 -0.93873006 1
2.6458895 -1.5294527 -1.535071 2
7.6909437 -4.4457393 -0.82878196 3
2.7623234 -1.5967572 -1.5102443 3
8.6987295 -5.0282884 -0.70258719 1
2.9042373 -1.6787902 -1.4935371 1
9.3712292 -5.4170256 -0.50477803 14
3.0580921 -1.7677258 -1.475399 3
10.356936 -5.9868121 -0.27774039 14
3.2064829 -1.8535029 -1.4462264 33
11.564869 -6.6850562 0 19
3.4055271 -1.9685601 -1.4316964 1
11.585988 -6.6972637 0.31069973 20
3.5941401 -2.0775876 -1.4027526 1
11.612852 -6.7127929 0.62552232 12
3.8083377 -2.2014041 -1.3726069 1
11.623063 -6.7186952 0.93878257 23
4.0662527 -2.3504918 -1.3467642 1
11.668304 -6.7448468 1.2573853 13
4.3284073 -2.5020297 -1.3088034 1
4.6216168 -2.671519 -1.2648482 1
4.9743648 -2.8754244 -1.2212733 2
5.3446903 -3.0894907 -1.1631255 2
2.315119 -1.3468906 -1.5884286 1
5.8101454 -3.3802276 -1.104365 1
2.4113998 -1.4029049 -1.5674849 2
6.3117805 -3.6720691 -1.0262625 1
2.532254 -1.4732153 -1.5577067 3
6.9299107 -4.0316849 -0.93756849 1
2.6400635 -1.5359368 -1.5341734 2
7.6853838 -4.4712043 -0.82952505 3
2.7547286 -1.6026466 -1.5085329 3
8.705348 -5.064599 -0.70426136 2
2.9074342 -1.6914878 -1.4976044 1
9.3215294 -5.4230814 -0.50291473 15
3.0563345 -1.7781149 -1.4769409 3
10.34709 -6.0197325 -0.27792609 14
3.2061255 -1.8652604 -1.4484088 31
11.499481 -6.6901708 0 20
3.4130123 -1.9856231 -1.4371686 1
11.572426 -6.7326083 0.31083897 21
3.5883245 -2.0876162 -1.4027526 1
11.547437 -6.71807 0.62300682 12
3.8038256 -2.2129905 -1.3732027 1
11.571491 -6.7320647 0.93613189 13
4.0580115 -2.3608708 -1.346213 1
11.597787 -6.7473631 1.2518119 13
4.3214035 -2.514107 -1.3088034 1
61.718452 -35.906574 8.3500748 34
4.6023636 -2.6775641 -1.2616204 1
4.9612432 -2.8863533 -1.220026 2
5.3768139 -3.1281242 -1.1720128 2
2.3068955 -1.3507427 -1.585368 1
5.7921681 -3.3914535 -1.1027439 1
2.4119871 -1.4122763 -1.570424 2
6.3049202 -3.6916821 -1.0268192 1
2.5357497 -1.4847423 -1.5624014 3
6.9306254 -4.0580473 -0.93919462 1
2.634222 -1.5424001 -1.5332756 2
7.6866159 -4.5006981 -0.8310113 3
2.7642822 -1.6185536 -1.5162338 3
8.6825628 -5.083849 -0.70356381 4
2.905853 -1.7014467 -1.4992313 1
9.273592 -5.4299107 -0.50114453 15
3.0561347 -1.7894403 -1.4792534 6
10.345768 -6.0576959 -0.27834389 14
3.2009041 -1.8742062 -1.4484088 33
11.432428 -6.6939611 0 19
3.4009669 -1.9913478 -1.4344325 1
11.579462 -6.7800527 0.31153533 19
3.5906558 -2.1024153 -1.4059538 1
11.506219 -6.7371674 0.62179565 13
3.7959836 -2.2226396 -1.3726069 1
11.514769 -6.7421732 0.93306255 16
4.053062 -2.3731651 -1.3467642 1
11.535938 -6.7545691 1.2471672 12
4.3243837 -2.5320303 -1.3118426 1
4.6133423 -2.7012227 -1.2666928 1
61.44434 -35.977135 10.006824 32
4.9649811 -2.9071155 -1.2229367 2
5.3527932 -3.1341889 -1.1686801 2
2.3098116 -1.3627559 -1.590469 1
5.7876887 -3.4146535 -1.1040409 1
2.4042871 -1.4184949 -1.5684646 1
6.2909374 -3.7115631 -1.0265409 1
2.5140822 -1.4832726 -1.5520731 3
6.9205523 -4.0830269 -0.93965918 1
2.6306319 -1.5520352 -1.5341734 2
7.6750789 -4.5281868 -0.83138293 3
2.7557859 -1.6258743 -1.5145226 3
8.6776848 -5.11971 -0.70454037 3
2.9017684 -1.7120018 -1.5000448 1
9.2211218 -5.4403296 -0.4992812 16
3.0517733 -1.8005027 -1.4800242 19
10.346289 -6.1041622 -0.27890095 13
3.2010899 -1.8885972 -1.4513187 34
11.365381 -6.7054124 0 19
3.3846326 -1.9968848 -1.4303282 1
11.57758 -6.8306069 0.31209239 22
3.5804005 -2.112385 -1.4046732 1
11.507904 -6.7894988 0.62309998 13
3.7984586 -2.2410362 -1.3761815 1
11.451107 -6.7559896 0.92971432 15
4.0402026 -2.3836617 -1.3451103 1
11.467169 -6.7654653 1.242151 13
4.3109646 -2.5434072 -1.310323 1
4.6026831 -2.715517 -1.2662315 1
4.9468884 -2.9185934 -1.2208575 2
5.3491416 -3.1559169 -1.1701612 2
2.3047566 -1.3679204 -1.5894488 1
5.7838206 -3.4328163 -1.1050135 1
2.4005651 -1.4247847 -1.5684646 2
6.2914181 -3.7340856 -1.028211 1
2.5238574 -1.4979612 -1.5605235 1
6.9252133 -4.1102562 -0.94174993 1
2.6280963 -1.5598291 -1.535071 2
7.6768975 -4.556396 -0.83286917 4
2.7515199 -1.6330835 -1.5145226 3
8.6676826 -5.1444473 -0.70481938 3
2.8909914 -1.7158628 -1.4967909 3
9.1724863 -5.4440584 -0.49741787 16
3.026418 -1.7962413 -1.4700031 24
10.328553 -6.130208 -0.27885452 13
3.1977363 -1.8979222 -1.4520462 24
11.30651 -6.7106457 0 18
3.4036355 -2.0201275 -1.4405888 1
11.587168 -6.8772216 0.31283513 21
3.5781167 -2.1236856 -1.4059538 1
11.51586 -6.8348994 0.62449747 16
3.790936 -2.2499983 -1.3755856 1
11.457399 -6.8002019 0.93166751 13
4.0438676 -2.4001184 -1.348418 1
11.411743 -6.7731037 1.2380638 15
4.3126097 -2.5596223 -1.3128555 1
4.6039257 -2.7325244 -1.2685372 1
4.9425955 -2.9335318 -1.2216892 2
5.3645234 -3.1839547 -1.1753457 2
2.2979743 -1.3725868 -1.5874085 1
5.7776008 -3.450978 -1.105662 1
2.401068 -1.434165 -1.5714036 2
6.2911682 -3.7577333 -1.029881 1
2.5166323 -1.5031919 -1.5586457 3
6.9068866 -4.125504 -0.94082069 1
2.629868 -1.570828 -1.538662 2
7.6658535 -4.5788374 -0.83305496 4
2.7531564 -1.6444685 -1.5179452 3
8.6721249 -5.1798859 -0.70635402 3
2.8924632 -1.7276769 -1.5000448 3
9.1229448 -5.449162 -0.49555454 16
3.0308967 -1.8103635 -1.4746283 42
10.325127 -6.1672292 -0.27922589 11
3.1892254 -1.9049338 -1.4505912 4
11.23965 -6.7134762 0 20
3.3931408 -2.0267332 -1.4385368 1
11.588517 -6.9218559 0.31339219 20
3.5672922 -2.1307542 -1.4040331 1
11.522456 -6.8823977 0.62589496 16
3.7928338 -2.265471 -1.3785644 1
11.462346 -6.8464932 0.93362063 18
4.0239458 -2.4035149 -1.3440078 1
11.391074 -6.8039227 1.237878 13
4.3037844 -2.5706632 -1.312349 1
4.6012897 -2.748364 -1.2699206 1
4.9494996 -2.9563508 -1.2254316 2
5.36236 -3.2029538 -1.1768268 2
2.2965989 -1.381573 -1.5894488 1
5.7751865 -3.4741991 -1.1072832 1
2.3965504 -1.4417013 -1.5714036 2
6.2827253 -3.779521 -1.0304377 1
2.5118973 -1.5110909 -1.5586457 1
6.9143176 -4.1594701 -0.94360834 1
2.6249201 -1.5790823 -1.538662 2
7.6684947 -4.613163 -0.83491284 4
2.7464278 -1.6521782 -1.5170896 3
8.671195 -5.216361 -0.70760965 3
2.8917181 -1.739581 -1.5024853 1
9.0783901 -5.4613185 -0.49406388 17
3.0220313 -1.817974 -1.4730866 34
10.327974 -6.2130351 -0.27982938 12
3.1864178 -1.9168644 -1.4520462 2
11.172231 -6.7209177 0 20
3.3851461 -2.0364141 -1.4378526 1
11.553007 -6.9499831 0.31302083 28
3.5654516 -2.144881 -1.4059538 1
11.519608 -6.9298911 0.62691981 15
3.787334 -2.2783597 -1.3791602 1
11.457876 -6.8927546 0.93501574 18
4.0361433 -2.4280369 -1.3506231 1
11.388414 -6.8509679 1.2399217 16
4.3006611 -2.5871634 -1.3138685 1
64.337883 -38.703964 8.7802963 39
4.6043057 -2.7698283 -1.2731484 1
63.102188 -37.960602 10.349469 34
4.9418645 -2.9728944 -1.2258475 2
5.3404822 -3.2126925 -1.1742347 2
2.2880752 -1.3857075 -1.5863882 1
5.7901735 -3.5066538 -1.1121469 1
2.3892796 -1.4469991 -1.5694443 2
6.2799544 -3.8032756 -1.0318295 1
2.5119345 -1.5212816 -1.5614625 3
6.905344 -4.182025 -0.9440729 1
2.6186943 -1.5859376 -1.5377642 2
7.6615863 -4.6400218 -0.83565593 3
2.744606 -1.6621925 -1.5188009 3
8.6727457 -5.2524014 -0.70900482 2
2.8756039 -1.7415277 -1.4967909 3
9.0296764 -5.4685669 -0.49229372 19
3.0197811 -1.8288444 -1.4746283 32
10.321465 -6.2509017 -0.28015432 11
3.1982455 -1.9369264 -1.4600486 2
11.111182 -6.7291713 0 18
3.3790891 -2.0464489 -1.4378526 1
11.443402 -6.9303703 0.3106069 48
3.5574512 -2.154469 -1.4053136 1
11.502414 -6.9661093 0.62710619 18
3.7854564 -2.2925539 -1.3809474 1
11.468093 -6.9453239 0.937527 16
4.033855 -2.4429896 -1.3522769 1
11.39529 -6.9012332 1.2428943 18
4.2929654 -2.5999124 -1.3138685 1
4.584415 -2.7764204 -1.2699206 1
64.525803 -39.078217 10.601929 72
4.9330215 -2.9875441 -1.2258475 2
5.3309264 -3.2285237 -1.1742347 2
2.2915411 -1.3965677 -1.5914892 1
5.7668772 -3.5145926 -1.1095529 1
2.3896959 -1.4563876 -1.5723833 2
6.2726912 -3.8228586 -1.0323862 1
2.5076764 -1.5282902 -1.5614625 3
6.9156909 -4.2147312 -0.94709283 1
2.6157815 -1.5941743 -1.538662 1
7.667304 -4.6727982 -0.83769953 4
2.7476716 -1.674554 -1.5230792 3
8.6887102 -5.2952886 -0.71151608 1
2.8800907 -1.7552561 -1.5016718 3
8.9990168 -5.4844031 -0.4914552 14
3.0225415 -1.842072 -1.4784825 32
10.327872 -6.2942672 -0.28080422 13
3.2007782 -1.9506974 -1.4636859 1
11.051359 -6.7351928 0 16
3.3797805 -2.0597894 -1.4405888 1
11.425711 -6.9633393 0.3106533 61
3.5659826 -2.1732693 -1.4110756 1
11.402736 -6.949337 0.62272733 36
3.7725184 -2.2991414 -1.3785644 1
11.46569 -6.9877043 0.93892217 16
4.0237341 -2.4522436 -1.3511745 1
11.39978 -6.947536 1.2454952 17
4.2922969 -2.6159177 -1.3158945 1
4.5866146 -2.7952881 -1.2726873 1
64.39106 -39.242794 10.597754 36
4.9380231 -3.0094521 -1.229174 2
5.3336377 -3.2505574 -1.1768268 2
2.2832332 -1.4002634 -1.5884286 1
5.7688169 -3.5379057 -1.1118226 1
2.3841333 -1.4621438 -1.5714036 2
6.2704334 -3.8455377 -1.0337778 1
2.5033989 -1.535287 -1.5614625 1
6.9089746 -4.237143 -0.94778979 1
2.6158903 -1.6042758 -1.541355 2
7.6389475 -4.6848216 -0.83602744 7
2.732198 -1.6756052 -1.5170896 3
8.6823921 -5.3247461 -0.71221358 3
2.8736203 -1.7623367 -1.5008582 3
8.9921818 -5.5147343 -0.49192104 12
3.0095201 -1.8456814 -1.4746283 30
10.308552 -6.3220391 -0.28075778 12
3.1953185 -1.9596281 -1.4636859 2
10.988181 -6.7388425 0 18
3.3772194 -2.0711846 -1.4419569 1
11.430083 -7.0098534 0.3113032 70
3.5502088 -2.1772757 -1.4072343 1
11.367958 -6.9717526 0.62188882 43
3.7839861 -2.3206468 -1.3851177 1
11.359393 -6.9664998 0.93180698 32
4.0086761 -2.4584448 -1.348418 1
11.407495 -6.9960003 1.2484677 18
4.278378 -2.6238482 -1.3138685 1
4.5738139 -2.8050334 -1.2713039 1
4.9346032 -3.0262985 -1.2304215 2
5.2910314 -3.2448893 -1.1694207 2
2.2851696 -1.4102478 -1.5925094 1
5.7656322 -3.5581472 -1.1131195 1
2.3859761 -1.4724586 -1.5753223 1
6.2731533 -3.8713541 -1.0360047 1
2.4960961 -1.540417 -1.5595847 1
6.9072571 -4.2626791 -0.94918352 1
2.6083579 -1.6096972 -1.5395595 2
7.6563377 -4.7249594 -0.83937156 4
2.7290461 -1.6841775 -1.5179452 1
8.6929569 -5.3646884 -0.71430629 2
2.8780167 -1.7761118 -1.5057391 3
9.007349 -5.5587096 -0.49359804 13
3.0074949 -1.8560168 -1.4761699 30
10.311275 -6.3634019 -0.28131485 11
3.1834919 -1.9646299 -1.460776 2
10.945491 -6.754796 0 17
3.3666244 -2.0776465 -1.4399047 1
11.30667 -6.9776912 0.3084715 53
3.5602391 -2.1971321 -1.4136367 1
11.377346 -7.021307 0.62347263 52
3.7742417 -2.3291996 -1.3839262 1
11.305937 -6.9772382 0.92901671 35
4.0165195 -2.4787166 -1.3533795 1
11.411638 -7.04247 1.2510687 17
4.2842064 -2.6439142 -1.3179206 1
66.66703 -41.142258 9.1612701 42
4.5659628 -2.8177948 -1.2713039 1
4.9261327 -3.0400665 -1.2304215 2
5.3170729 -3.2813277 -1.1771971 2
2.272208 -1.4115752 -1.5863882 1
5.7684608 -3.5835702 -1.1157135 1
2.3830781 -1.4804517 -1.5763021 1
6.2633219 -3.890995 -1.036283 1
2.5035145 -1.555271 -1.5670961 3
6.9063911 -4.2904925 -0.95080972 2
2.5990164 -1.6146001 -1.5368665 2
7.6473603 -4.7508082 -0.83992898 5
2.7240372 -1.6922674 -1.5179452 1
8.6905594 -5.3988805 -0.71542239 2
2.8711824 -1.7836792 -1.5049257 3
9.0179691 -5.6022782 -0.4950887 13
3.0035427 -1.865906 -1.4769409 32
10.305937 -6.4024091 -0.28168622 12
3.1808136 -1.976033 -1.4622308 1
10.945788 -6.7999072 0 12
3.3524632 -2.0826676 -1.4364846 5
11.263839 -6.9974914 0.307868 70
3.5681891 -2.2166841 -1.4193987 1
11.383615 -7.0719008 0.62496328 49
3.7689357 -2.3413949 -1.384522 1
11.281797 -7.0086479 0.9287377 35
4.0026155 -2.4865651 -1.3511745 1
11.422832 -7.0962634 1.2545986 13
4.2599077 -2.646404 -1.3128555 1
4.5724602 -2.8405724 -1.2754539 1
73.287422 -45.528717 12.125597 48
4.9170909 -3.0546694 -1.2304215 2
5.2906189 -3.2867179 -1.1734941 2
2.2767611 -1.4237834 -1.5925094 1
5.7444162 -3.5922985 -1.1131195 1
2.3727615 -1.4838178 -1.5723833 1
6.2551074 -3.9116616 -1.0368397 1
2.4958947 -1.5608197 -1.5652183 3
6.8919463 -4.3099117 -0.95057732 1
2.5987601 -1.6251471 -1.5395595 2
7.6399841 -4.7777009 -0.84067208 5
2.7266676 -1.7051347 -1.5222235 3
8.6846514 -5.4309888 -0.71625948 3
2.8627791 -1.7902527 -1.5032986 5
9.0131636 -5.6364255 -0.49574086 16
2.9995577 -1.8757879 -1.4777116 30
10.298761 -6.4403806 -0.28201118 11
3.1796753 -1.9884253 -1.4644133 2
10.967957 -6.8588653 0 13
3.3510494 -2.0955949 -1.4385368 3
3.5358932 -2.2111878 -1.409155 1
11.233848 -7.0251408 0.61788267 54
3.7603536 -2.3515551 -1.3839262 1
11.303242 -7.0685363 0.93222553 36
4.0050001 -2.5045459 -1.3544819 1
11.435494 -7.1512418 1.2583143 12
4.2750034 -2.673394 -1.3199465 1
4.5673118 -2.8561904 -1.2763762 1
4.9146409 -3.0733943 -1.2320848 2
5.3008409 -3.3149064 -1.1779377 2
2.2722766 -1.4309292 -1.5925094 1
5.7548122 -3.6239991 -1.1173346 1
2.3739901 -1.4949814 -1.5763021 2
6.2578712 -3.9407921 -1.0393448 1
2.4805188 -1.5620662 -1.5586457 3
6.8884573 -4.3378935 -0.95197117 2
2.5981786 -1.6361606 -1.5422527 2
7.6384163 -4.8101678 -0.84215832 4
2.7197676 -1.7127292 -1.5213679 3
8.6878061 -5.471004 -0.71793365 11
2.8555949 -1.7982641 -1.5024853 7
8.9818869 -5.6561971 -0.49499553 15
2.9983346 -1.8881522 -1.4800242 32
10.29878 -6.4854889 -0.28256825 9
3.1734128 -1.9984049 -1.4644133 1
10.980203 -6.9146032 0 11
3.3539913 -2.1121211 -1.442641 1
3.5401521 -2.229353 -1.4136367 1
11.536307 -7.264801 0.63577068 6
3.7497156 -2.3613222 -1.3827347 2
11.456558 -7.2145805 0.94673485 20
3.9971118 -2.5171158 -1.3544819 1
11.444988 -7.207294 1.2618442 13
4.2616715 -2.6837182 -1.3184271 1
4.5517292 -2.8663771 -1.2745317 1
4.8950291 -3.0825646 -1.2295899 2
72.865341 -45.885761 14.147286 22
5.3070316 -3.3420165 -1.1816407 2
2.2682719 -1.437269 -1.5925094 1
5.7546721 -3.6463933 -1.1192801 1
2.3639145 -1.497872 -1.5723833 1
6.2451692 -3.9571922 -1.0390664 1
2.4791303 -1.5708774 -1.5605235 3
6.8897414 -4.3656192 -0.95382965 1
2.5996382 -1.6472361 -1.5458435 2
7.6417761 -4.8421388 -0.84401619 4
2.7088661 -1.7164474 -1.5179452 3
8.6640673 -5.4899039 -0.71723604 8
2.8459318 -1.8032976 -1.5000448 19
8.97787 -5.6887422 -0.4956477 14
2.9961679 -1.8984934 -1.4815658 32
10.307652 -6.5313458 -0.28331098 11
3.1725407 -2.0102503 -1.4665958 2
10.999706 -6.9698596 0 13
3.3576047 -2.1275144 -1.4467452 1
11.081191 -7.0214915 0.30457208 63
3.5563197 -2.2534282 -1.4225999 1
11.060331 -7.0082741 0.61061561 3
3.749558 -2.3758719 -1.3851177 1
11.475128 -7.2711062 0.94994366 13
3.9916914 -2.5292974 -1.3550334 1
11.456776 -7.2594771 1.2653741 8
4.2656012 -2.7028577 -1.3219726 1
4.5535703 -2.8853266 -1.2772985 1
4.9062314 -3.1087868 -1.2345797 2
5.2877169 -3.3505116 -1.1794189 2
2.2627988 -1.4426725 -1.5914892 1
5.7328186 -3.6550219 -1.1170105 1
2.3597224 -1.5044672 -1.5723833 1
6.2457843 -3.982069 -1.0410149 1
2.485157 -1.5844394 -1.5670961 3
6.8825479 -4.3880448 -0.95452648 1
2.5874932 -1.649685 -1.541355 1
7.6433363 -4.8730936 -0.84568822 4
2.7177811 -1.7327515 -1.5256462 3
8.6133747 -5.4915528 -0.71430629 10
2.8378038 -1.8092734 -1.4984179 33
8.978796 -5.7245312 -0.49657938 15
2.9892988 -1.9058607 -1.480795 16
10.306233 -6.5708532 -0.28377521 11
3.1700568 -2.0211048 -1.4680507 2
11.018989 -7.0252781 0 12
3.3373888 -2.1277893 -1.4405888 1
3.5260482 -2.2480712 -1.4129963 1
3.7445188 -2.3873594 -1.3857135 1
3.9846129 -2.5404341 -1.3550334 1
4.2661939 -2.719959 -1.324505 1
4.5389314 -2.893846 -1.2754539 1
4.910728 -3.1308889 -1.2379063 2
5.3031983 -3.3811131 -1.1849735 2
2.261657 -1.4508435 -1.5935296 1
5.7375398 -3.6806076 -1.1199286 1
2.3628502 -1.5157584 -1.5772817 2
6.2446418 -4.0059114 -1.042685 1
2.4762638 -1.5885128 -1.5642794 3
6.8702674 -4.4072475 -0.95452648 1
2.5873892 -1.6597992 -1.5440481 1
7.6380792 -4.8997955 -0.84661716 4
2.7068455 -1.7364299 -1.5222235 3
