# .PCD v0.7 - Point Cloud Data file format
VERSION 0.7
FIELDS x y z intensity
SIZE 4 4 4 4
TYPE F F F F
COUNT 1 1 1 1
WIDTH 1451
HEIGHT 1
VIEWPOINT 0 0 0 1 0 0 0
POINTS 1451
DATA ascii
2.4940472 10.837432 -1.562914 24
2.5678916 11.158309 -1.3389853 45
2.585377 11.234289 -1.075503 100
2.6247323 11.4053 -0.81838292 14
0.93507826 4.0632138 -1.8563461 1
2.5570445 11.111176 -0.53170329 45
0.98753375 4.2911496 -1.8392384 7
2.559134 11.120255 -0.26492804 30
1.0545685 4.582437 -1.8361547 7
2.547713 11.070626 0 29
1.1333884 4.9249349 -1.8393843 7
2.5797613 11.209887 0.26706344 73
1.2267957 5.3308191 -1.8483554 9
2.5409148 11.041086 0.52834928 18
1.3235028 5.7510424 -1.8414618 7
2.7339096 11.879711 0.85242409 8
1.4418167 6.2651544 -1.8434627 7
1.5885767 6.9028735 -1.8543072 6
15.941063 69.269012 8.3122091 34
1.7602291 7.6487579 -1.8596911 5
1.9703784 8.561924 -1.867463 8
2.1192975 9.2090244 -1.7804226 19
2.3487084 10.069086 -1.6986989 24
2.5234954 10.818411 -1.561244 23
2.6131744 11.202871 -1.3452575 53
2.6652944 11.426314 -1.0946387 100
2.6268392 11.261454 -0.80861706 46
0.94298071 4.0426278 -1.8482114 1
2.5913656 11.109375 -0.53198278 34
1.000682 4.2899976 -1.8400092 7
2.6121054 11.198288 -0.26697057 92
1.0673151 4.5756588 -1.8346996 7
2.5133123 10.774755 0 26
1.1454359 4.9105682 -1.8352801 7
2.6266398 11.260599 0.26845607 41
1.2395959 5.314239 -1.8438739 9
1.3388276 5.7396526 -1.8390788 6
2.7918098 11.968696 0.85939974 20
1.4569075 6.2458706 -1.8390526 7
2.899616 12.430868 1.1908747 7
1.6050974 6.8811712 -1.8497486 6
1.7802657 7.6321306 -1.8569247 5
1.9913321 8.5369873 -1.8633049 8
2.1484005 9.2103519 -1.7819039 19
2.3700724 10.041774 -1.6951323 20
2.5413437 10.767434 -1.5548421 17
2.6429489 11.197926 -1.3454897 58
2.6343589 11.16153 -1.0699294 92
2.631104 11.14774 -0.80094379 40
0.95356035 4.0401454 -1.8482114 1
2.6351247 11.164775 -0.53496408 17
1.0106373 4.2819753 -1.8376967 7
2.6216617 11.107734 -0.26497445 22
1.0784339 4.5692229 -1.8332448 7
2.5865333 10.958899 0 92
1.1569918 4.9020658 -1.8332279 7
2.6184466 11.094111 0.26464951 45
1.2504566 5.2980671 -1.8393922 9
2.6296177 11.141443 0.53384614 22
1.3525326 5.7305536 -1.8372915 7
2.833673 12.006005 0.86260855 11
1.4728115 6.2401638 -1.8385013 7
2.7322493 11.576283 1.1096871 3
1.6217722 6.8712964 -1.8482291 6
1.7980039 7.6179733 -1.8546189 5
2.0091796 8.5127048 -1.8591465 11
2.1752131 9.2161732 -1.7841257 19
2.3934283 10.007827 -1.6905929 17
2.5778847 10.779108 -1.5576254 19
2.7015724 11.296293 -1.3582664 53
2.6915474 11.254375 -1.0795902 100
2.652101 11.089435 -0.79731649 29
0.9600181 4.0141978 -1.8376362 1
1.0229077 4.277163 -1.8369259 7
2.6834397 11.220473 -0.2678526 41
1.0898187 4.5569434 -1.8296074 7
2.6306655 10.999804 0 45
1.1706564 4.8949561 -1.8318599 7
2.6336772 11.012398 0.26288548 41
1.264407 5.286963 -1.8368313 9
2.6775312 11.195768 0.53682745 12
1.3681962 5.7209449 -1.8355043 7
2.8590717 11.954858 0.85953927 11
1.4890831 6.2264175 -1.8357449 7
1.6385512 6.8514009 -1.8441771 6
1.8169763 7.5974636 -1.8509301 5
2.0307868 8.4914856 -1.8558199 11
2.2052898 9.2211485 -1.7863476 15
2.4211395 9.9849148 -1.687999 16
2.6042714 10.740161 -1.553172 24
2.7534349 11.355319 -1.3663969 42
2.7348714 11.278763 -1.0827484 100
2.6897504 11.092681 -0.79815358 28
0.97563928 4.0235906 -1.8433305 3
2.6703229 11.01256 -0.52844244 43
1.0350363 4.2685475 -1.8346133 7
2.711612 11.182838 -0.26715627 104
1.1036918 4.5516868 -1.8288798 7
2.6557865 10.952612 0 45
1.1842583 4.8839474 -1.8291236 7
2.6748602 11.031273 0.26353538 31
1.2783327 5.2719154 -1.8329898 9
2.7112815 11.181477 0.53654796 28
1.3870639 5.7203288 -1.8366958 8
1.5041078 6.2030249 -1.8302321 7
1.6568778 6.8330564 -1.8406315 6
3.3118925 13.658429 1.6435325 3
1.8376273 7.5784774 -1.847702 5
2.0523849 8.4641495 -1.8512459 10
2.2361031 9.2218142 -1.7878287 14
2.4474576 9.9642706 -1.6857293 16
2.5997479 10.584287 -1.5317392 38
2.7913771 11.364462 -1.3684876 48
2.7911224 11.363425 -1.0916661 100
2.7174141 11.063338 -0.79661888 29
0.98277849 4.0011606 -1.8343823 5
2.6639071 10.845495 -0.52080274 27
1.0485765 4.2690425 -1.8361551 7
2.6675143 10.860183 -0.25963598 9
1.1180799 4.5520101 -1.8303348 8
2.5966733 10.571769 0 39
1.1973984 4.8749371 -1.8270717 7
2.646529 10.774746 0.25759342 30
1.2917085 5.2588992 -1.8297886 9
2.6491339 10.785351 0.51791459 8
1.3985643 5.6939392 -1.8295468 7
2.8159266 11.464409 0.8254981 13
1.5225049 6.198535 -1.8302321 7
1.6739126 6.8149576 -1.837086 6
3.3486099 13.633109 1.641674 1
1.8559258 7.5559826 -1.843552 5
2.0714216 8.4333258 -1.8458401 10
2.2662661 9.2265911 -1.7900505 14
2.4686062 9.930584 -1.6811899 16
2.6316819 10.586596 -1.533131 22
2.8120778 11.312284 -1.3631448 48
2.8017046 11.270555 -1.0834917 97
2.7507031 11.065389 -0.79731649 40
0.99350661 3.996628 -1.8335689 5
2.6787581 10.775972 -0.51782143 54
1.0582669 4.2571425 -1.8323008 7
1.1307864 4.5488706 -1.8303348 8
2.7313657 10.987599 0 39
1.2105528 4.8697505 -1.8263875 7
2.7277355 10.972997 0.26251411 35
1.3027313 5.2405615 -1.8246669 9
2.8368425 11.411906 0.54838014 18
1.4130766 5.684453 -1.8277595 6
3.0351591 12.209684 0.87976867 13
1.536097 6.1793332 -1.825822 7
3.3027639 13.286191 1.2772642 5
1.6910689 6.8027463 -1.83506 6
1.8732616 7.5356622 -1.8398632 5
2.0883551 8.4009295 -1.8400186 10
2.2929697 9.2240429 -1.7907913 12
2.491998 9.9064255 -1.6782717 16
2.6660695 10.598412 -1.5359144 29
2.8069372 11.158402 -1.0734593 100
2.7290306 10.848701 -0.78224909 40
1.0055561 3.9973814 -1.8351958 5
2.6990955 10.7297 -0.51595807 33
1.0679013 4.2452221 -1.8284466 7
2.7027643 10.744284 -0.25722206 30
1.1389414 4.5276275 -1.8230599 7
2.712275 10.782092 0 43
1.2218561 4.8572383 -1.8229674 7
2.790076 11.091374 0.26553151 21
1.3150511 5.227715 -1.8214656 9
2.7717149 11.018383 0.52983993 30
1.4266181 5.671227 -1.8247808 6
1.5519419 6.169426 -1.8241682 7
3.3218825 13.205462 1.2703903 5
1.7058133 6.7811103 -1.8305014 6
1.8909768 7.51719 -1.8366354 5
2.1089458 8.3836813 -1.8375237 10
2.3192012 9.2195082 -1.7911615 15
2.5142958 9.8783903 -1.6747051 16
2.6893029 10.565974 -1.5322959 24
2.8541455 11.213623 -1.3531557 30
2.8292429 11.115784 -1.0701152 94
2.774569 10.900975 -0.78657401 27
1.0144609 3.9857051 -1.8311285 7
2.7236257 10.700825 -0.51493329 64
1.0815721 4.2493773 -1.83153 6
2.7820745 10.930464 -0.26186422 47
1.1529583 4.5298457 -1.8252424 8
2.7867706 10.948915 0 25
1.2340238 4.8483434 -1.8209152 7
2.8338592 11.133921 0.26673847 50
1.3249699 5.2056608 -1.8150632 11
2.8300672 11.119022 0.53505731 21
1.4396231 5.6561203 -1.8212063 7
2.8503554 11.198732 0.80805898 7
1.5677403 6.1594791 -1.8225143 7
2.9751258 11.688941 1.125293 10
1.7214012 6.7631955 -1.8269559 6
1.9081198 7.4967923 -1.8329463 5
2.1270397 8.356905 -1.8329495 10
2.3386343 9.1882362 -1.7863476 21
2.5098858 9.7471018 -1.6536294 23
2.7197895 10.56226 -1.5328526 24
2.8800032 11.184447 -1.3506004 58
2.8568006 11.09434 -1.0688148 95
0.97233987 3.7760665 -1.8456639 1
2.8214209 10.956944 -0.79117793 23
1.0242214 3.9775479 -1.828688 7
2.7853844 10.816998 -0.5208959 70
1.0915948 4.2391915 -1.8284466 7
2.7986298 10.868435 -0.26056442 54
1.1646758 4.5230002 -1.8237876 8
2.7245741 10.58084 0 55
1.2461536 4.8394179 -1.8188632 7
1.3409207 5.2074447 -1.8169839 15
2.8556294 11.089792 0.53403246 31
1.4539857 5.6465306 -1.819419 7
2.8706751 11.148222 0.80498976 27
1.5825396 6.1457677 -1.8197579 7
1.738353 6.7508669 -1.82493 6
3.0677433 11.913533 1.4386426 2
1.9251673 7.476357 -1.8292574 5
2.1464684 8.3357763 -1.829623 10
2.3647761 9.1835709 -1.7867179 24
2.7524559 10.551746 -1.5325743 24
2.9106112 11.158046 -1.3485097 73
2.893146 11.091091 -1.0693721 87
0.98419714 3.7729933 -1.8456639 1
2.860863 10.967332 -0.79257303 25
1.0353279 3.9690068 -1.8262476 7
2.8339751 10.864255 -0.52359778 79
1.1039747 4.2321696 -1.8269049 7
2.8226645 10.820895 -0.25963598 31
1.1737059 4.4994893 -1.8157852 7
1.2580293 4.8227496 -1.8140749 7
2.8322532 10.857655 0.26051798 20
1.3563163 5.1995397 -1.8157035 20
2.8894446 11.076901 0.53384614 16
1.4693071 5.6326985 -1.8164403 6
1.5979561 6.1258841 -1.8153478 7
1.7561331 6.7322674 -1.8213844 6
3.1091645 11.919214 1.440501 2
1.9447142 7.4552073 -1.8255684 5
2.1672122 8.3081703 -1.825049 10
2.3970864 9.1894102 -1.78931 22
2.4973381 9.4587221 -1.607263 11
2.7888107 10.562682 -1.5353578 22
2.9690633 11.245393 -1.3601248 88
2.9387531 11.130592 -1.0740166 93
0.99261981 3.7595694 -1.8405298 1
2.880152 10.908639 -0.78894573 28
1.0485001 3.9712169 -1.828688 7
2.917201 11.048963 -0.53291446 60
1.1137017 4.2181692 -1.8222797 7
2.8195426 10.679079 -0.25643289 61
1.187528 4.4977884 -1.8165128 7
2.9336455 11.111247 0 76
1.2723347 4.8189955 -1.8140749 7
2.8802822 10.909132 0.26195705 76
1.3707719 5.1918283 -1.8144231 22
2.9865608 11.311665 0.54558516 26
1.483578 5.6190839 -1.8134615 6
2.9641886 11.226929 0.81196535 17
1.6166174 6.1229739 -1.815899 7
3.0053465 11.382816 1.0983543 38
1.7731389 6.7158027 -1.8183454 6
3.1465478 11.917619 1.4414303 3
1.9613632 7.4287057 -1.8204961 5
2.186862 8.2827873 -1.8208908 10
2.4278562 9.1955585 -1.7919021 19
2.5574858 9.5713911 -1.6276902 49
2.8196254 10.552447 -1.5350795 31
3.0147209 11.282593 -1.3657 82
2.9681652 11.108357 -1.0727161 87
0.99583656 3.7269182 -1.8259836 1
2.9073541 10.880772 -0.78755063 22
1.0574477 3.9574978 -1.8238072 7
2.9437802 11.017097 -0.53179646 47
1.1271645 4.2184129 -1.8238215 6
2.8878605 10.807817 -0.25972882 28
1.201829 4.4978447 -1.8179677 8
2.961952 11.085105 0 54
1.2871115 4.8170147 -1.8147589 7
2.9043775 10.869632 0.26121432 73
1.3832346 5.1767554 -1.8105816 22
3.0103092 11.266082 0.54381496 13
1.4992568 5.6109686 -1.81227 7
2.945466 11.023406 0.79787457 9
1.6313024 6.1051488 -1.8120401 7
1.7920573 6.7067738 -1.8173323 6
2.9921582 11.198152 1.3554788 2
1.9813851 7.4153337 -1.8186517 5
2.2068815 8.2592535 -1.8171484 10
2.4465024 9.1560345 -1.7856069 24
2.6122301 9.6813412 -1.6474688 16
2.845921 10.547438 -1.5353578 19
3.0127878 11.165873 -1.3524588 102
2.9890776 11.077998 -1.0704867 61
1.0025868 3.7157469 -1.8217055 1
2.9432909 10.908306 -0.79006177 20
1.0675918 3.9566658 -1.8246206 7
2.891067 10.714756 -0.51754194 56
1.1345854 4.2049546 -1.8191965 7
2.9153056 10.804588 -0.25982165 88
1.2079639 4.4769073 -1.8106929 7
2.9207804 10.824879 0 21
1.2959419 4.802968 -1.8106546 7
2.9043674 10.76405 0.25884679 35
1.3934135 5.1642132 -1.8073806 22
2.9654906 10.990582 0.53086478 36
1.5114723 5.6017575 -1.8104827 7
3.0077386 11.14716 0.80736142 8
1.6432123 6.0900068 -1.8087324 7
1.8023936 6.6799583 -1.8112544 6
1.9964589 7.3991952 -1.8158849 5
2.2240012 8.2425032 -1.8146534 10
2.4642627 9.1329508 -1.7822741 24
2.6010218 9.5207853 -1.6215296 27
2.8696456 10.504056 -1.5303475 24
3.0431378 11.139107 -1.350368 85
3.0233383 11.066633 -1.0703009 95
1.0137781 3.7108352 -1.8208497 3
2.9622958 10.843193 -0.78601593 21
1.0785713 3.9480047 -1.8221802 7
2.9352422 10.744165 -0.51940525 26
1.1468165 4.1978092 -1.8176546 7
2.9197247 10.687366 -0.25722206 34
1.2215309 4.4712939 -1.8099655 7
2.9568794 10.823367 0 52
1.311519 4.8006864 -1.8113388 7
2.9566097 10.82238 0.26047155 16
1.4086307 5.1561546 -1.8061 22
2.9868393 10.933032 0.5285356 17
1.5270495 5.5896149 -1.8080997 6
1.6613219 6.0811057 -1.8076298 7
1.8208195 6.6649313 -1.8087218 6
3.2771447 11.995667 1.4542068 22
2.0135384 7.3703594 -1.8103515 5
2.2436962 8.2128305 -1.8096635 10
2.4996741 9.1498117 -1.7870882 24
2.6622744 9.6390381 -1.6429294 13
2.907402 10.526547 -1.5348011 27
3.0974998 11.214817 -1.3605894 69
3.0722537 11.12341 -1.0766176 83
1.0231736 3.7045052 -1.8191384 3
2.9994671 10.859879 -0.78782964 21
1.0871594 3.9361725 -1.8181129 7
2.973742 10.766738 -0.5208959 70
1.1575512 4.1910329 -1.8161131 7
2.9633963 10.729281 -0.25842902 40
1.2335155 4.4660697 -1.8092381 7
2.9998696 10.861337 0 52
1.3209163 4.7825131 -1.8058664 7
2.9942706 10.841064 0.26112148 42
1.4210052 5.144896 -1.803539 22
2.9854436 10.809105 0.52294558 10
1.5401103 5.576128 -1.8051211 6
3.1078241 11.252196 0.81629026 22
1.675737 6.0671778 -1.8048735 7
1.8353025 6.6449013 -1.8046699 6
3.1234136 11.30864 1.3719721 6
2.0299664 7.3497014 -1.8066626 5
2.2634957 8.195219 -1.8071686 10
2.5220745 9.1314297 -1.7848663 22
2.6505618 9.4804764 -1.6173145 22
2.9447217 10.532621 -1.5370278 27
3.1188085 11.155291 -1.3545495 76
3.0830538 11.027404 -1.0682573 98
1.034319 3.6995313 -1.8182826 4
3.0228236 10.811975 -0.78503937 20
1.0995193 3.9327378 -1.8181129 7
3.0140052 10.780433 -0.5220139 61
1.1702142 4.1855984 -1.8153421 7
2.990088 10.694886 -0.25782552 37
1.2495457 4.4693499 -1.8121479 8
3.0285895 10.832597 0 49
1.3349214 4.7747197 -1.8044982 7
3.0627675 10.954844 0.26409245 50
1.4376706 5.142231 -1.8041793 22
3.0322948 10.84585 0.52518159 17
1.5540212 5.5583916 -1.8009509 7
1.6921998 6.0526261 -1.8021171 7
1.854084 6.63165 -1.8026438 6
2.0499005 7.3320427 -1.8038958 5
2.2829082 8.1654596 -1.8021786 10
2.5459847 9.1064262 -1.7815336 22
2.7097669 9.5888844 -1.6370931 13
2.9660473 10.495768 -1.5328526 27
3.1261814 11.062425 -1.3443283 73
3.1414576 11.116481 -1.0777323 92
1.0456303 3.7001076 -1.819994 6
3.0600612 10.828449 -0.78685302 28
1.1080139 3.9208601 -1.8140454 7
3.0647466 10.84503 -0.5255543 64
1.1803936 4.1769857 -1.8130295 7
2.9878643 10.57297 -0.25508666 33
1.2574631 4.4497066 -1.8056005 7
3.0512166 10.797152 0 49
1.3462067 4.7637386 -1.8017621 7
3.1096628 11.003971 0.26548511 90
1.4479042 5.1236091 -1.7990575 18
3.1207063 11.043051 0.53515047 17
1.5716156 5.561379 -1.8033339 8
3.2011278 11.327632 0.82312638 15
1.7070059 6.0404758 -1.799912 7
3.3488665 11.850427 1.1488876 21
1.8683884 6.6115503 -1.7985917 6
3.1688581 11.213442 1.3626801 3
2.0650773 7.3075609 -1.7992847 5
2.3003838 8.1402264 -1.7980205 10
2.5708728 9.0973883 -1.7811633 22
2.7376158 9.5850754 -1.6377416 11
3.0018704 10.510297 -1.5361928 19
3.1505127 11.030731 -1.3415406 80
1.0115867 3.5418172 -1.8501647 1
3.1478765 11.021501 -1.0693721 87
1.0509938 3.6797912 -1.8114374 6
3.0804234 10.78533 -0.78434181 29
1.1184561 3.9159939 -1.8132321 7
3.102699 10.863323 -0.52685863 64
1.191039 4.1701245 -1.8114879 6
3.0991938 10.85105 -0.26200345 47
1.2683483 4.440804 -1.803418 7
3.0489478 10.675126 0 42
1.3595035 4.7599607 -1.8017621 7
3.1167655 10.912573 0.26348895 15
1.4601241 5.1122584 -1.7964965 11
3.2497413 11.378155 0.55182731 20
1.5824198 5.5404458 -1.7979721 7
3.2058978 11.224648 0.81629026 20
1.7217544 6.0282917 -1.797707 7
3.2556129 11.398712 1.1059715 18
1.8836547 6.5951447 -1.7955527 6
2.0822678 7.2905383 -1.796518 5
2.3193445 8.1206036 -1.7951097 10
2.5995047 9.1015139 -1.7833852 22
2.7578073 9.5546389 -1.6338506 12
3.0421965 10.539928 -1.5417597 20
3.2204201 11.157397 -1.358034 73
1.0130489 3.5097873 -1.8349037 1
3.18472 11.033711 -1.0714157 92
1.0607655 3.6751051 -1.8105818 6
3.0756767 10.655922 -0.77555251 28
1.1273619 3.9058337 -1.8099781 7
3.1080952 10.768239 -0.5226661 70
1.2021691 4.165009 -1.8107171 7
3.082911 10.680986 -0.25810406 88
1.2797127 4.4336648 -1.8019632 7
3.0931702 10.71653 0 44
1.3722708 4.7543397 -1.8010781 7
3.1544387 10.9288 0.26409245 42
1.4733452 5.1045194 -1.7952161 9
3.1673765 10.973623 0.53263497 18
1.5952399 5.5268335 -1.7949934 6
3.3091602 11.464845 0.83442694 26
1.7364511 6.0160708 -1.7955018 7
3.2371824 11.215471 1.0890652 12
1.8983107 6.5768461 -1.7920072 6
3.5426824 12.2739 1.4939303 1
2.0993826 7.2734756 -1.7937512 5
2.3355048 8.0915394 -1.7901199 7
2.6270936 9.1017714 -1.7848663 19
2.7761855 9.5123158 -1.6280144 11
3.0667906 10.508043 -1.5384196 34
3.2562859 11.15733 -1.3591956 76
1.0154445 3.4793165 -1.8205404 1
3.2213418 11.037598 -1.0727161 92
1.0716627 3.6719422 -1.8105818 6
3.1095083 10.654412 -0.77611053 24
1.1389432 3.9024723 -1.8099781 7
3.1445022 10.774314 -0.52341139 64
1.2119337 4.1525669 -1.8068628 6
3.1056185 10.641084 -0.25736132 34
1.2949469 4.4370027 -1.8048731 8
1.3832089 4.7394238 -1.7969738 7
3.1638768 10.840699 0.26218915 66
1.4858265 5.091032 -1.7920148 8
3.1971159 10.95459 0.5321691 25
1.6094881 5.5147462 -1.7926103 7
3.3152065 11.359216 0.82745129 26
1.7510579 5.9998207 -1.7921942 7
3.2793636 11.236403 1.0920377 3
1.9140174 6.5581846 -1.7884617 6
3.5735109 12.244268 1.4916074 4
2.1154971 7.2485347 -1.78914 5
2.3529201 8.0620394 -1.7851299 10
2.6469231 9.0694103 -1.7800523 19
2.7971389 9.4794283 -1.6237992 12
3.0850663 10.455207 -1.5320176 24
3.2562099 11.035208 -1.3454897 76
1.0262702 3.4780021 -1.8214381 1
3.241118 10.984061 -1.0684432 78
1.0820422 3.6670117 -1.809726 6
3.1512737 10.679582 -0.77862179 22
1.1505182 3.8990753 -1.8099781 7
3.1798518 10.776432 -0.52397043 79
1.2247728 4.150722 -1.8076336 7
3.1790547 10.773731 -0.26079649 56
1.3012531 4.4099116 -1.7954159 7
3.168025 10.736352 0 33
1.3946071 4.7262859 -1.7935537 7
3.2413006 10.98468 0.26590288 57
1.4987819 5.0793319 -1.7894539 8
3.2505279 11.015952 0.53561628 22
1.6231437 5.5007901 -1.7896316 7
3.3624504 11.395254 0.83079964 41
1.7677655 5.9909101 -1.7910916 7
3.3538327 11.36605 1.1055999 10
1.9301841 6.5413423 -1.7854227 6
2.1325908 7.2272925 -1.7854512 5
28.768354 97.495178 14.286119 40
2.3746181 8.0475168 -1.7834666 10
2.6710422 9.0520906 -1.7782007 19
2.8139679 9.4332647 -1.6173145 12
3.1070137 10.415642 -1.5275642 24
3.2946138 11.044534 -1.3478128 51
1.0324974 3.461241 -1.8142565 2
3.2776768 10.987755 -1.0697436 83
1.0924003 3.6620533 -1.8088704 6
3.1766715 10.649156 -0.77708709 21
1.1599921 3.8886411 -1.8067243 7
3.2015307 10.732491 -0.52229345 37
1.2339169 4.1364594 -1.8030087 7
3.2338676 10.840894 -0.26265338 33
1.315396 4.4096017 -1.7968707 7
3.2181594 10.788235 0 24
1.4075487 4.7185254 -1.7921855 7
3.2915947 11.034412 0.26734197 21
1.5138451 5.0748625 -1.7894539 8
3.2512155 10.89905 0.53039896 11
1.6378193 5.4904613 -1.7878443 7
3.3580327 11.257133 0.82145226 19
1.7827842 5.9764271 -1.7883353 7
1.9440522 6.517046 -1.7803576 6
22.108894 74.115639 9.0446548 41
2.1484606 7.2022848 -1.7808399 5
28.945389 97.033623 14.231008 40
2.3928914 8.0216894 -1.7793084 10
2.6978869 9.0441256 -1.7782007 21
2.8128898 9.3285084 -1.6007781 24
3.1299021 10.37983 -1.5236673 31
3.3245053 11.025201 -1.3466513 48
1.0437955 3.4615841 -1.8160518 2
3.326364 11.031364 -1.0749456 87
1.1022183 3.6553342 -1.8071589 8
3.209409 10.643502 -0.7773661 19
1.1699436 3.8799343 -1.8042839 7
3.2362475 10.732508 -0.52275926 60
1.2456529 4.1310129 -1.8022377 7
3.2556317 10.796792 -0.26181778 51
1.3263236 4.3985448 -1.7939609 7
3.2305262 10.713534 0 36
1.4210013 4.7125282 -1.7915015 7
1.5250683 5.0576501 -1.7849723 8
3.2258658 10.698079 0.52108228 17
1.6518996 5.4782662 -1.7854614 8
3.4179173 11.334987 0.82786983 29
1.7966254 5.9582262 -1.7844764 7
3.3930523 11.252526 1.0964966 3
1.9628235 6.5093966 -1.7798512 6
22.37575 74.205666 9.0637045 41
2.1670136 7.1865616 -1.7785343 5
29.144569 96.653397 14.187864 40
2.4132955 8.0033159 -1.7768135 10
2.7247121 9.0360813 -1.7782007 15
2.8278961 9.2785892 -1.5936449 31
3.1445169 10.317452 -1.5158734 31
3.3311405 10.929781 -1.3361977 58
1.05354 3.4567626 -1.8151542 2
3.3532727 11.002398 -1.0730878 83
1.1098964 3.6416731 -1.8020252 8
3.2322483 10.605307 -0.77527344 22
1.1814498 3.8764462 -1.8042839 7
3.3065166 10.848988 -0.52890825 37
1.2568277 4.1237683 -1.8006961 7
3.2695799 10.727795 -0.26037872 88
1.3371955 4.3874621 -1.791051 7
3.3001978 10.828256 0 80
1.4311414 4.6957078 -1.7867132 7
3.2794895 10.760309 0.26116788 46
1.5406194 5.054915 -1.7856125 8
3.243613 10.642595 0.51884627 16
1.6703721 5.4806461 -1.7878443 8
3.3904586 11.124409 0.81322098 25
1.8120528 5.9455132 -1.7822711 7
1.9776151 6.4887385 -1.7757992 6
22.523998 73.903328 9.0348988 41
2.1837871 7.1652083 -1.7748454 5
29.303595 96.147812 14.126349 40
2.4318969 7.979279 -1.7730712 10
2.7469256 9.0129175 -1.7752384 10
2.8504393 9.2654934 -1.5926721 30
3.182585 10.34515 -1.521162 22
3.3474803 10.88115 -1.3313195 80
1.0631126 3.4557002 -1.8160518 3
3.3533771 10.900318 -1.0639843 97
1.119959 3.6404822 -1.8028808 8
3.2594185 10.5949 -0.77513391 26
1.1905208 3.8698463 -1.8026569 7
3.3167005 10.781098 -0.52602011 53
1.2692486 4.1257553 -1.8030087 6
3.2947176 10.709641 -0.26014659 32
1.3503219 4.3892879 -1.7932334 8
3.3114834 10.76414 0 34
1.4434311 4.6919441 -1.7867132 7
3.3640924 10.935148 0.26562434 16
1.5505066 5.0399981 -1.7817712 8
1.6779797 5.4543557 -1.7806953 8
3.410187 11.084981 0.81098878 21
1.824222 5.9297237 -1.7789637 7
3.4821956 11.319049 1.1048568 24
1.9911842 6.4724426 -1.7727602 6
22.804455 74.127007 9.0695124 41
2.1979623 7.1445847 -1.7711564 5
29.449831 95.728127 14.075969 40
2.4476035 7.9560556 -1.7693286 10
2.7676249 8.9963017 -1.7733868 8
2.876601 9.2470713 -1.5910509 20
3.1956537 10.272693 -1.5119767 17
3.4087889 10.957833 -1.3420053 34
1.0681236 3.4335716 -1.8061771 5
3.3858287 10.884026 -1.063427 87
1.1297789 3.6317677 -1.8003138 6
3.3187613 10.668432 -0.78127253 19
1.202129 3.8643432 -1.8018434 7
3.3202865 10.673335 -0.52126861 27
1.2800102 4.1146984 -1.7999252 6
3.3158724 10.659146 -0.25917175 47
1.3596766 4.3707929 -1.7874135 7
3.3244889 10.686845 0 31
1.4570469 4.6837974 -1.7853452 7
1.5652061 5.0314841 -1.7804906 8
3.347585 10.761088 0.5255543 22
1.6934044 5.4435883 -1.778908 8
3.4171388 10.984675 0.80443168 13
1.8416985 5.9202924 -1.777861 7
3.5171447 11.306152 1.104671 33
2.0063345 6.4495282 -1.7682016 6
3.5498137 11.411169 1.3975253 2
2.2169271 7.1264954 -1.7683898 5
29.628042 95.241791 14.018073 40
2.4685171 7.9352517 -1.7664179 10
2.7871153 8.9594126 -1.7678323 8
2.8942957 9.2187977 -1.5874842 30
3.2160094 10.243507 -1.5089149 22
3.4380579 10.950768 -1.3422376 58
1.0792497 3.4375842 -1.809768 5
3.3409412 10.641435 -1.0405755 100
1.1403654 3.6322472 -1.8020252 6
3.3873165 10.789147 -0.79075938 22
1.2116938 3.8594396 -1.8010298 7
3.3308618 10.60933 -0.51856679 104
1.2874606 4.100769 -1.7953001 7
3.34077 10.64089 -0.25893965 47
1.3716722 4.3689961 -1.7881411 8
3.433929 10.937616 0 104
1.4687403 4.678174 -1.7846612 7
3.4845109 11.098727 0.27008083 34
1.5755343 5.0183301 -1.7772894 8
3.3990829 10.826626 0.5291878 21
1.7042178 5.4282074 -1.7753336 8
3.3442876 10.652094 0.78071445 23
1.8548871 5.9081135 -1.775656 7
3.5860984 11.4223 1.1169326 6
2.0220523 6.4405618 -1.7671885 6
2.2314949 7.1076698 -1.7651619 5
29.773447 94.833221 13.969362 40
2.4857657 7.9175634 -1.7639229 7
2.8076162 8.942709 -1.7659807 10
2.9256294 9.2171831 -1.5887811 23
3.2481725 10.233354 -1.5089149 25
3.4658308 10.919086 -1.3396822 53
1.0873398 3.4256597 -1.8052795 5
3.4297795 10.805507 -1.0576677 99
1.1490355 3.6200316 -1.7977468 6
3.4030848 10.721404 -0.78657401 31
1.2210481 3.8469069 -1.7969626 7
3.3569205 10.575964 -0.51744878 53
1.2997782 4.0949459 -1.7945293 7
3.3784151 10.643682 -0.25926459 37
1.3842627 4.361114 -1.7866861 8
3.4428582 10.84671 0 31
1.4822919 4.6699543 -1.783293 7
3.4425359 10.845695 0.26418531 61
1.588425 5.0043268 -1.7740884 8
3.5418713 11.15865 0.5459578 25
1.724727 5.4337454 -1.778908 9
3.4024808 10.719501 0.78643447 14
1.8711112 5.894928 -1.7734509 7
3.6213603 11.409081 1.1167469 3
2.0393479 6.4249573 -1.7646561 6
3.8480518 12.123271 1.4874259 3
2.2496903 7.0876403 -1.761934 5
29.96875 94.41642 13.921764 40
2.5052989 7.8929338 -1.7601806 7
2.8279648 8.9094915 -1.7611668 12
2.9650199 9.246047 -1.595266 26
3.2682426 10.191609 -1.5041831 21
3.4842649 10.865248 -1.3343394 88
1.0975001 3.4224179 -1.8052795 5
3.4466259 10.747875 -1.0530231 100
1.1553563 3.6028352 -1.7909015 9
3.465955 10.80815 -0.79368913 20
1.2330157 3.8450062 -1.797776 7
3.4102504 10.634442 -0.52080274 47
1.3102329 4.0857987 -1.7922168 7
3.3788452 10.53651 -0.25689709 31
1.3926466 4.3427954 -1.7808664 7
3.6399252 11.350655 0 49
1.4926994 4.6547976 -1.7791888 7
3.4856932 10.869702 0.26502088 75
1.6032677 4.9995914 -1.7740884 8
3.5273824 10.999704 0.53869081 18
1.7373452 5.4176955 -1.7753336 9
3.622529 11.296407 0.82954395 20
1.8838986 5.8747039 -1.7690406 7
2.0548592 6.4078231 -1.7616171 6
30.307158 94.509109 11.606475 63
2.266552 7.0679612 -1.7587062 5
30.136293 93.976288 13.869992 63
2.5239301 7.870563 -1.7568541 10
2.8453877 8.8729877 -1.7556123 13
2.9886072 9.2363758 -1.5949417 37
3.2808878 10.139678 -1.4977809 21
3.49435 10.799389 -1.3273703 68
1.1048052 3.414432 -1.8025864 6
3.5164375 10.867651 -1.0656563 67
1.1664536 3.6049583 -1.7934686 6
3.4536994 10.673757 -0.78448129 31
1.2408272 3.8348117 -1.7945222 7
3.4835911 10.766137 -0.52769709 35
1.3197882 4.0788431 -1.7906752 7
3.4088788 10.535237 -0.25708279 27
1.4045841 4.3409071 -1.7815938 7
3.4855299 10.77213 0 19
1.5048798 4.6508741 -1.7791888 7
3.5529163 10.980389 0.26794544 61
1.6128504 4.9845605 -1.7702469 8
3.5856879 11.081671 0.54316282 21
1.7468201 5.3985972 -1.7705675 8
3.7767735 11.672227 0.8578651 26
1.8980876 5.8660941 -1.7679381 7
2.0656705 6.3840141 -1.756552 6
2.2820518 7.0527458 -1.7564007 5
30.255993 93.507011 13.812374 62
2.5415142 7.8546219 -1.7547748 7
2.8631608 8.8486805 -1.7522796 13
3.0061915 9.1974535 -1.589754 33
3.2881951 10.060245 -1.4874822 22
3.51774 10.762538 -1.324118 88
1.1116006 3.4009461 -1.7972002 6
3.5356781 10.81742 -1.0617549 87
1.1760223 3.5980446 -1.7917571 8
3.5275061 10.792418 -0.7939682 22
1.2533362 3.8345866 -1.7961491 7
3.4993849 10.706381 -0.52527481 43
1.3295922 4.0678921 -1.7875916 7
3.4531705 10.564988 -0.25805765 44
1.4145647 4.3278661 -1.7779562 7
3.4851687 10.662886 0 30
1.5175061 4.6428156 -1.7778207 7
3.5326822 10.808254 0.26399961 31
1.6258682 4.9743495 -1.7683262 8
3.6129689 11.053892 0.5423243 21
1.7598661 5.3843169 -1.7675889 8
3.6564324 11.186869 0.82298684 16
1.9119023 5.849472 -1.7646304 7
3.9192514 11.990965 1.1769409 42
2.0828016 6.3723392 -1.7550325 6
3.920737 11.995509 1.4758109 12
2.2987373 7.0329947 -1.7531729 5
30.393654 92.989494 13.74919 62
2.5593398 7.8303099 -1.7510324 7
2.8863521 8.8308039 -1.7504281 11
3.0396526 9.2072334 -1.5929962 28
3.3167865 10.046683 -1.4869256 23
1.0778584 3.2648778 -1.8281225 1
3.5484102 10.748281 -1.3236535 82
1.1205653 3.3942387 -1.7954047 6
3.5552711 10.769063 -1.0580392 93
1.184992 3.5893896 -1.7891902 8
3.586405 10.863369 -0.79996723 56
1.2618434 3.822176 -1.7920817 7
3.4954345 10.587815 -0.51996428 43
1.3399198 4.0586724 -1.7852793 7
3.5271244 10.683805 -0.26121432 61
1.4285668 4.327188 -1.7794113 8
1.5295066 4.6329389 -1.7757686 7
3.5208557 10.664818 0.26075009 20
1.6400255 4.9677048 -1.767686 8
3.621949 10.971033 0.53878397 33
1.7800226 5.3917623 -1.7717592 9
3.7790477 11.446892 0.84293723 15
1.9280431 5.8401222 -1.7635279 7
3.9111102 11.846914 1.163936 32
2.0974526 6.3532705 -1.751487 6
3.9370043 11.925348 1.4686096 14
2.3171527 7.0187511 -1.7513283 5
30.561996 92.573547 13.701036 61
2.5788808 7.8115363 -1.7485375 10
2.9057615 8.801672 -1.7463546 7
3.0715904 9.2174339 -1.5962387 30
3.3373139 10.014835 -1.4835854 22
1.0903207 3.2719071 -1.8337561 1
3.5633373 10.693101 -1.3180782 68
1.132864 3.399574 -1.7998933 7
3.6048448 10.817659 -1.0637985 87
1.1938672 3.5826364 -1.7874788 9
3.5839267 10.754887 -0.79271257 104
1.2713562 3.815171 -1.7904549 7
3.5325654 10.600759 -0.52108228 40
1.3483305 4.0461602 -1.7814249 7
3.6024563 10.810492 -0.26455668 64
1.4388775 4.3178797 -1.7772288 8
3.6634946 10.99366 0 22
1.5400608 4.6215177 -1.7730323 7
3.6075134 10.825667 0.26492804 42
1.6490984 4.9487247 -1.7625641 8
3.695519 11.089761 0.54511929 16
1.7902427 5.3722801 -1.766993 9
3.8803797 11.644503 0.8582837 23
1.9413043 5.8255959 -1.7607716 7
4.0253892 12.079657 1.1879022 34
2.1115148 6.3363752 -1.748448 6
2.3324358 6.9993296 -1.7481005 5
30.715185 92.17218 13.654275 61
2.5963542 7.7913132 -1.7456268 10
2.9247355 8.776742 -1.743022 7
3.092288 9.1938553 -1.5936449 37
3.3621137 9.996089 -1.4821937 24
1.0865062 3.2303526 -1.8121604 1
3.5988867 10.700052 -1.3201689 58
1.1412145 3.3930092 -1.7980978 7
3.6407559 10.824536 -1.0654706 61
1.2038682 3.5792882 -1.7874788 8
3.7303436 11.090895 -0.81824344 12
1.2808416 3.8081419 -1.7888279 7
3.5704372 10.615467 -0.52229345 50
1.3608023 4.0458779 -1.7829667 7
3.6211605 10.766275 -0.26372108 58
1.4479614 4.305016 -1.7735915 7
3.6546533 10.865856 0 82
1.5505654 4.6100731 -1.7702962 7
3.6530313 10.861033 0.26604217 83
1.6629128 4.9440999 -1.7625641 8
3.760232 11.179757 0.55005717 23
1.8040224 5.3636403 -1.7658017 9
3.9764891 11.822723 0.87223494 28
1.9551151 5.8128624 -1.7585664 7
3.8984973 11.590842 1.1408988 9
2.1248856 6.3176165 -1.7449025 6
3.9813833 11.837275 1.4604789 23
2.3470113 6.9780316 -1.7444116 5
4.5162816 13.427611 1.9910105 5
2.6162329 7.7784691 -1.7443793 7
2.9385846 8.7368708 -1.7367268 7
3.117979 9.1747532 -1.5920236 34
3.3934987 9.9854784 -1.4821937 23
1.0960805 3.2252519 -1.8112215 1
3.6209769 10.65484 -1.3159876 82
1.1507175 3.3860233 -1.7963026 7
3.6600049 10.769681 -1.0611976 87
1.2133614 3.5703547 -1.784912 8
3.715734 10.933666 -0.8075009 56
1.2898585 3.7954497 -1.7847604 7
3.6699793 10.799031 -0.53188962 47
1.3723174 4.0380878 -1.7814249 7
3.6047809 10.607183 -0.26010019 20
1.4608785 4.2986817 -1.772864 7
3.6617403 10.774788 0 43
1.5595973 4.5891647 -1.76414 7
3.6749082 10.813535 0.26516014 23
1.6753877 4.929882 -1.7593629 8
3.8641171 11.370289 0.56002599 21
1.8196341 5.3543315 -1.7646101 9
3.8062522 11.200019 0.82717228 25
1.9708915 5.7994113 -1.7563614 7
2.1416082 6.3017507 -1.7423699 6
2.3657894 6.961411 -1.742106 5
4.5527053 13.396481 1.9885055 3
2.6312129 7.7424283 -1.7381419 10
2.9565296 8.6996822 -1.7311722 7
3.1592822 9.2065268 -1.5991569 28
3.4198999 9.9659977 -1.4808019 27
1.1056461 3.2219851 -1.8112215 1
3.6461298 10.625259 -1.3136644 90
1.1555392 3.3673797 -1.7882231 6
3.7003486 10.783259 -1.0636128 78
1.222777 3.5633185 -1.7832005 6
3.7371531 10.890512 -0.80512923 40
1.3011153 3.7916057 -1.7847604 7
3.6857967 10.740853 -0.52956045 47
1.382497 4.0287619 -1.7791123 7
3.7024367 10.789344 -0.26483521 63
1.4706044 4.2855177 -1.7692267 7
3.6956444 10.76955 0 45
1.574428 4.5880718 -1.7655079 7
3.6952977 10.76854 0.26432455 17
1.6875491 4.9177203 -1.7568021 8
3.88098 11.309641 0.55760366 20
1.8336551 5.3434906 -1.7628229 9
3.8258708 11.149046 0.82424253 20
1.9855957 5.7862635 -1.7541562 7
4.1081948 11.971771 1.1808424 11
2.1584144 6.2898784 -1.7408504 6
2.3826458 6.9433155 -1.7393392 5
4.6001511 13.405392 1.9918455 1
2.6503661 7.723484 -1.735647 7
2.9785039 8.6797171 -1.7289504 7
3.1878908 9.2112799 -1.6014266 33
3.4369092 9.9308081 -1.4769051 29
1.1111892 3.210736 -1.8065268 1
3.7207096 10.750837 -1.3303902 68
1.1678576 3.3744767 -1.7936094 8
3.6842775 10.645569 -1.0509794 93
1.2326921 3.5618134 -1.7840562 8
3.7591245 10.861836 -0.80373406 27
1.3098415 3.7847335 -1.7831335 7
3.7406909 10.808573 -0.53338027 30
1.3918316 4.0216408 -1.7775706 7
3.7195518 10.747492 -0.26404601 54
1.4812089 4.2798924 -1.7684993 7
3.7231708 10.757949 0 43
1.5845895 4.5786061 -1.7634557 7
3.7391698 10.804177 0.26543868 47
1.7004172 4.9132857 -1.7568021 8
3.9144943 11.310771 0.55816269 15
1.8438907 5.3278465 -1.7592483 9
4.0821185 11.795114 0.87279302 28
1.99885 5.7755952 -1.7525024 7
4.1492901 11.989203 1.1836292 15
2.1710763 6.2732363 -1.7378114 6
4.6146669 13.333891 1.6500369 2
2.3950861 6.9205031 -1.7351892 5
31.338316 90.550781 13.466668 59
2.6654575 7.7017303 -1.7323204 10
2.9922168 8.6458883 -1.7237661 7
3.1869226 9.1259518 -1.5881327 30
3.4561374 9.8968649 -1.4732865 23
1.118986 3.2042863 -1.8046488 3
3.6688502 10.505981 -1.3013525 90
1.1766864 3.3695149 -1.7927116 8
3.7468159 10.729241 -1.0602686 92
1.2408452 3.5532377 -1.7814891 8
3.7716801 10.800441 -0.79996723 28
1.3185976 3.7758865 -1.7806932 7
3.7813962 10.828264 -0.53487092 54
1.4024477 4.0159965 -1.7767998 7
3.7581177 10.761604 -0.26464951 34
1.4925396 4.2739806 -1.7677716 7
3.7551742 10.753176 0 73
1.5967487 4.5723896 -1.7627718 7
1.7097573 4.895997 -1.7523204 8
3.7372656 10.701893 0.52862877 33
1.8480601 5.2920356 -1.7491206 8
3.9762478 11.386233 0.84335572 65
2.0111666 5.7591009 -1.7491947 7
2.1847575 6.2561893 -1.7347724 6
4.6826634 13.409099 1.6609552 2
2.4111929 6.9046016 -1.7328836 5
31.468941 90.113274 13.414618 59
2.6824379 7.6813283 -1.7294097 10
3.0098677 8.6189442 -1.7200632 7
3.249718 9.2126732 -1.6049932 26
3.5069804 9.9419909 -1.481637 23
1.1255233 3.1907628 -1.7990152 5
3.7302556 10.574956 -1.3113415 101
1.1854837 3.3607452 -1.7900186 8
3.7659342 10.676102 -1.0561814 78
1.2501988 3.5442071 -1.7789221 8
3.6741846 10.415999 -0.7723437 13
1.3292388 3.7682786 -1.7790661 7
3.8114111 10.805026 -0.53431195 61
1.4126029 4.0046086 -1.7737164 7
3.8404653 10.887392 -0.26803827 58
1.5041014 4.2639995 -1.7655892 7
3.9013782 11.060075 0 25
1.6067305 4.554944 -1.7579836 7
3.9209461 11.115548 0.2736553 25
1.7232406 4.8852401 -1.7503997 8
3.9941726 11.323138 0.55993283 26
1.8621376 5.2790012 -1.7467376 8
4.1706243 11.823364 0.87669939 20
2.0254138 5.7418756 -1.745887 7
4.2753453 12.12024 1.1990492 21
2.200541 6.2383461 -1.7317333 6
4.7293959 13.407434 1.6625812 2
2.427048 6.8804741 -1.7287334 5
31.651768 89.730064 13.37231 59
2.7013521 7.658103 -1.7260829 7
32.089485 90.970955 15.848578 20
3.0297406 8.589056 -1.7159897 7
3.2852659 9.2210093 -1.6082356 28
3.5388594 9.9327898 -1.4819154 27
1.1302073 3.17224 -1.7905647 7
3.7547903 10.538859 -1.3083216 81
1.1948357 3.3536375 -1.7882231 8
3.7874234 10.630454 -1.0528373 74
1.2588997 3.5334508 -1.7754996 9
3.7992916 10.663765 -0.79159647 69
1.3392303 3.7589211 -1.7766256 7
3.8366187 10.768534 -0.53310078 36
1.4245567 3.9984131 -1.7729456 7
1.5181143 4.2610087 -1.7663168 8
3.8240075 10.733137 0 75
1.6222929 4.5534148 -1.7593515 7
3.8370693 10.769798 0.26543868 34
1.7366709 4.8744483 -1.748479 8
4.1215825 11.568364 0.57269669 26
1.8748672 5.2623343 -1.7431631 8
4.119359 11.562123 0.8582837 29
2.0408607 5.7282405 -1.743682 7
4.3227553 12.133012 1.2016501 22
2.2168808 6.2222905 -1.729201 6
2.4447317 6.8618169 -1.7259668 5
31.826469 89.329803 13.327495 58
2.7188306 7.6311512 -1.7219248 9
3.0481324 8.5554285 -1.7111758 7
3.3123367 9.2155151 -1.6088842 26
1.092259 3.0388606 -1.8143638 1
3.5505035 9.8781376 -1.475235 25
1.1420474 3.1773808 -1.7952594 7
3.790251 10.545158 -1.3104123 73
1.203591 3.3486059 -1.7873254 8
3.8346052 10.668559 -1.0576677 78
1.2699844 3.5333242 -1.777211 8
3.8654952 10.754501 -0.79913014 29
1.3497213 3.7551668 -1.7766256 7
3.8741064 10.778459 -0.53412563 25
1.4344676 3.9909458 -1.7714039 7
3.7961152 10.561473 -0.26056442 27
1.5287464 4.2532463 -1.7648618 8
3.8830521 10.803348 0 63
1.6318229 4.5400243 -1.7559314 7
3.9820995 11.078916 0.27333036 31
1.7477118 4.8624473 -1.745918 8
3.9747941 11.05859 0.54800749 7
1.8901999 5.2588754 -1.7437588 9
4.1840205 11.640696 0.86498028 23
2.0522957 5.7098551 -1.7398231 7
2.2322836 6.2106133 -1.7276814 6
4.6516409 12.941699 1.6082227 1
2.4586165 6.8403115 -1.7222779 5
31.971279 88.949837 13.284074 58
2.7341733 7.6069603 -1.7181823 9
3.065362 8.5283861 -1.7074727 7
3.3414245 9.2155037 -1.6105052 26
1.0947982 3.0194061 -1.8045671 1
3.5713267 9.8495646 -1.4724516 29
1.147907 3.1658781 -1.7905647 7
3.8433864 10.599894 -1.3185427 54
1.2111107 3.3401909 -1.7846323 8
3.8521671 10.62411 -1.0543236 97
1.2786149 3.5263646 -1.7754996 8
3.8832738 10.709901 -0.79661888 34
1.3577124 3.7445121 -1.7733718 7
3.8939788 10.739425 -0.53272814 40
1.4456079 3.9869242 -1.7714039 7
1.5355386 4.2349491 -1.759042 6
3.8763947 10.690929 0 45
1.6412927 4.5266142 -1.7525111 7
4.0246119 11.099706 0.2741195 28
1.7587013 4.8504224 -1.7433571 8
1.8983718 5.2356272 -1.7378013 9
4.1267438 11.381381 0.84656459 57
2.065613 5.6968718 -1.737618 7
2.2456629 6.1934414 -1.7246424 6
2.4724038 6.8187823 -1.7185889 5
32.106834 88.549255 13.23759 58
2.7507398 7.586421 -1.7152715 9
3.081799 8.4994688 -1.7033994 7
3.3648603 9.2048721 -1.6101811 28
1.1074879 3.0296309 -1.8124045 1
3.6018591 9.8532038 -1.4744 23
1.1531595 3.1545696 -1.78587 7
3.8458877 10.520765 -1.3099477 89
1.2204642 3.3386877 -1.78553 8
3.8991094 10.666358 -1.0595255 92
1.2872213 3.5213075 -1.7746439 6
3.9462321 10.795266 -0.80373406 28
1.3681375 3.742661 -1.7741852 7
4.0496602 11.078203 -0.55005717 50
1.4541392 3.9779263 -1.7690914 7
3.8586955 10.555802 -0.26093578 19
1.5453405 4.2274151 -1.757587 7
3.8741553 10.598094 0 34
1.6537826 4.5240684 -1.7531953 7
3.9136138 10.706036 0.26464951 13
1.7694412 4.8404627 -1.7414364 8
4.0983605 11.211427 0.55667204 21
1.9061718 5.2145014 -1.7324396 16
4.1921439 11.467979 0.85381925 22
2.0785394 5.686028 -1.7359642 7
4.4023089 12.042905 1.1962624 34
2.2585471 6.1784549 -1.7221098 6
27.179697 74.352455 9.2576752 86
2.4875731 6.8049755 -1.7167445 5
32.233814 88.178444 13.194725 57
2.7658885 7.5663319 -1.7123607 7
3.0945919 8.4655285 -1.6982152 7
3.394892 9.2022533 -1.6114781 24
1.108024 3.0034292 -1.798689 1
3.6112013 9.7885847 -1.4663279 25
1.1612928 3.1478205 -1.7839921 7
3.9410317 10.682629 -1.3315517 61
1.2272731 3.3266678 -1.7810415 6
3.9176481 10.619246 -1.0559957 83
1.295162 3.5106885 -1.7712213 6
3.972724 10.768535 -0.80261797 28
1.3748106 3.7265854 -1.7684909 7
4.1551213 11.262943 -0.55983967 61
1.4652981 3.9718623 -1.7683206 7
1.5572331 4.2210631 -1.7568595 8
3.9547353 10.719774 0 59
1.6626463 4.5067978 -1.748407 7
4.0657821 11.020779 0.27272686 60
1.7837969 4.8351908 -1.7414364 8
4.2754393 11.58908 0.5760507 26
1.9209759 5.2070308 -1.7318438 19
4.316617 11.700697 0.87209547 11
2.0920756 5.6708164 -1.7332077 7
4.225739 11.454361 1.1390411 14
2.2741923 6.164465 -1.7200838 6
2.4996719 6.7756538 -1.7112111 5
32.378109 87.764664 13.147127 57
2.7842658 7.5470791 -1.7098658 7
3.1128955 8.4378681 -1.6945121 7
3.4228632 9.1939907 -1.6118023 26
1.1132785 2.9903247 -1.7928108 1
3.6733911 9.8669224 -1.4796885 27
1.1712415 3.1460166 -1.7849311 7
3.9304259 10.557331 -1.3173814 61
1.2340181 3.3146379 -1.776553 6
3.9602485 10.637436 -1.0589682 87
1.3030475 3.5000544 -1.7677985 8
3.9761102 10.680042 -0.79689795 47
1.3839467 3.7173538 -1.7660505 7
4.2038484 11.291759 -0.56188935 88
1.4732106 3.9571214 -1.7636955 7
4.0538092 10.888745 -0.26975587 43
1.5690975 4.2146788 -1.756132 8
3.9760504 10.679881 0 38
1.6746966 4.4983234 -1.7470388 7
4.0063715 10.761326 0.26659921 86
1.7941658 4.8192239 -1.7375951 8
4.3300128 11.630643 0.57875258 30
1.9337491 5.1941524 -1.7294608 22
4.2267056 11.353154 0.84712267 34
2.1082177 5.6627841 -1.7326565 7
4.2006421 11.283147 1.1232494 20
2.2897685 6.1504388 -1.7180579 6
5.1128106 13.73328 1.7136875 3
2.5143282 6.7536187 -1.707522 5
32.556084 87.447357 13.114004 56
2.8011811 7.5241199 -1.7065393 9
3.1344833 8.4193878 -1.6926606 7
3.4591527 9.2078114 -1.6160175 22
1.1227601 2.9886403 -1.7937906 1
3.6963844 9.8392916 -1.4771833 27
1.1787086 3.1375678 -1.7821143 7
3.9407778 10.489835 -1.3104123 80
1.2413343 3.3042693 -1.7729622 6
4.0184078 10.696475 -1.066028 93
1.3121562 3.4927878 -1.7660873 8
4.0162039 10.690609 -0.79857212 40
1.3956139 3.7149415 -1.7668641 7
3.9661355 10.557333 -0.52592695 12
1.4868931 3.9579148 -1.766008 9
3.9757042 10.582805 -0.26246768 18
1.580942 4.2082605 -1.7554046 8
4.0689154 10.83092 0 90
1.6886981 4.4950933 -1.7477229 7
4.0200043 10.700725 0.26539227 65
1.8057927 4.8067837 -1.735034 8
4.2000985 11.180113 0.55695146 15
1.9464679 5.1812425 -1.7270778 22
4.3305397 11.527329 0.86107391 23
2.1202788 5.6439052 -1.7287976 7
4.5156312 12.02002 1.1979345 25
2.3039262 6.13275 -1.7150187 6
5.1423621 13.688294 1.7099707 3
2.5316198 6.7388406 -1.7056775 5
32.739506 87.148277 13.083664 56
2.8152394 7.4937987 -1.7015494 7
3.1483936 8.3806114 -1.6867357 7
3.4890501 9.2091875 -1.6179628 20
1.129867 2.9822321 -1.7918313 1
3.7006941 9.7678118 -1.4679979 31
1.1905949 3.1425204 -1.786809 7
4.0122862 10.590244 -1.3243504 83
1.2543569 3.3108172 -1.7783484 8
4.0461488 10.679624 -1.0654706 95
1.3225462 3.4908001 -1.7669429 8
4.0566483 10.707336 -0.80066484 28
1.4020997 3.7007778 -1.7619833 7
1.4940182 3.9433925 -1.7613829 7
4.1079621 10.842777 -0.26919881 51
1.5900487 4.1968603 -1.7524947 8
4.118989 10.871882 0 31
1.6985823 4.4833298 -1.7449868 7
4.2156372 11.126981 0.27625489 29
1.818539 4.7999501 -1.7343938 8
4.2263517 11.155261 0.55629933 23
1.9575485 5.1668591 -1.724099 24
4.2206388 11.140182 0.83303177 16
2.1326275 5.6289721 -1.7260412 7
4.4701657 11.798798 1.1771268 4
2.3189886 6.1208639 -1.7134993 6
5.4064865 14.270173 1.7845393 2
2.548362 6.7262845 -1.7042942 5
2.8313057 7.4731011 -1.6986386 9
3.1662166 8.3570833 -1.6837733 7
3.5184712 9.2043257 -1.6189356 19
1.139955 2.9821241 -1.7937906 1
3.7494586 9.808589 -1.4757916 22
1.1942382 3.1241288 -1.7783583 7
4.0451064 10.582005 -1.3248149 58
1.2628978 3.3037424 -1.776553 8
4.0934591 10.708495 -1.0695579 100
1.3316064 3.4834843 -1.7652317 8
4.081986 10.678481 -0.79940921 31
1.4137256 3.6983082 -1.7627966 7
4.2786903 11.193059 -0.55881482 20
1.5037342 3.9337709 -1.7590704 7
4.1215506 10.781981 -0.26799187 61
1.6024932 4.1921244 -1.7524947 8
4.2540607 11.128629 0 49
1.7105341 4.4747596 -1.7436186 7
4.2986064 11.245161 0.27950442 53
1.8307422 4.7892241 -1.7324731 8
4.2772632 11.189327 0.5586285 15
1.9701425 5.1538954 -1.7217162 24
2.1465726 5.615437 -1.7238361 7
4.6480703 12.159359 1.2144692 5
2.3323023 6.101306 -1.7099538 6
5.0558515 13.226114 1.6558444 2
2.5585785 6.6932449 -1.6978385 5
2.847877 7.4500499 -1.695312 9
3.1832774 8.3274584 -1.6796999 7
3.5493147 9.2030525 -1.6205568 19
1.1494251 2.9803557 -1.7947702 2
3.7685659 9.7715511 -1.4718947 20
1.2028666 3.1189244 -1.7774194 7
4.0571852 10.519915 -1.3185427 65
1.2681925 3.2883086 -1.7702692 6
4.1553073 10.774337 -1.0773607 98
1.341285 3.4778309 -1.7643759 8
4.1416483 10.73892 -0.80485016 25
1.4220622 3.6872787 -1.7595428 7
4.1738539 10.822426 -0.54092681 44
1.5140706 3.9258485 -1.7575288 7
4.344182 11.264071 -0.28029358 41
1.6102312 4.1751838 -1.7474023 7
4.1496029 10.759546 0 21
1.7238027 4.4696646 -1.7436186 7
4.3125248 11.181988 0.27825105 13
1.8456249 4.7855387 -1.7331133 8
4.3068476 11.167267 0.55816269 9
1.9867989 5.1515903 -1.7229077 24
4.5688081 11.846506 0.88786042 11
2.1590729 5.5982809 -1.7205284 7
2.3496978 6.0925541 -1.7094473 6
33.465343 86.772614 10.875887 57
2.574924 6.6765456 -1.695533 5
33.835136 87.731453 13.215043 57
2.8629286 7.423315 -1.6911539 7
3.2001901 8.2978039 -1.6756265 7
3.5808971 9.2035179 -1.6225022 16
1.15194 2.9606826 -1.7849735 2
3.8032856 9.775094 -1.4741217 14
1.2114743 3.1136961 -1.7764806 7
4.0725322 10.467103 -1.3134322 41
1.2772948 3.2828658 -1.7693714 6
4.2219143 10.851041 -1.0862783 78
1.349631 3.4687822 -1.7618089 8
4.2291956 10.869756 -0.81559271 22
1.433658 3.684746 -1.7603562 7
4.2146373 10.832337 -0.54204482 61
1.5250422 3.9196188 -1.7567579 6
4.0854044 10.500188 -0.26158568 19
1.6253133 4.1773329 -1.7503122 8
4.3330736 11.136741 0 52
1.7316042 4.4505186 -1.7381463 7
1.8556927 4.7694473 -1.729272 8
4.3167791 11.09486 0.55518132 22
1.999305 5.1385555 -1.7205247 20
2.1742785 5.5882673 -1.7194259 7
4.7887354 12.307869 1.2321187 16
2.3642552 6.07654 -1.7069148 6
2.5883701 6.6525536 -1.6913829 5
2.8806837 7.4038496 -1.688659 7
3.2183809 8.2717886 -1.6722939 7
3.6137946 9.211853 -1.6257447 16
1.1570203 2.949338 -1.7800751 3
3.8226144 9.7441521 -1.4710598 14
1.218231 3.1053686 -1.7736636 7
4.0952201 10.439046 -1.3113415 40
1.2884164 3.2842772 -1.7720644 8
4.2725658 10.891114 -1.0914804 74
1.3579931 3.4616339 -1.7600977 8
4.3207412 11.013917 -0.82731181 27
1.4419415 3.6756248 -1.7579157 7
4.3623405 11.119957 -0.55704463 40
1.5332872 3.9084725 -1.7536745 7
4.1169047 10.494322 -0.26172495 61
1.6349325 4.1675744 -1.7481297 8
4.3670816 11.132042 0 42
1.7433407 4.4439158 -1.7374624 7
4.2111011 10.734436 0.26771334 15
1.8662378 4.7571902 -1.7267109 8
4.4148726 11.253865 0.56375265 20
2.0108593 5.1258426 -1.7181416 16
4.6835961 11.938864 0.89678925 10
2.1835582 5.5660653 -1.7144644 7
4.7903647 12.211025 1.2237585 11
2.3762708 6.0573053 -1.7033693 6
2.6033857 6.63624 -1.6890773 6
34.599545 88.197021 13.31497 58
2.8956344 7.3812051 -1.6853322 9
3.2364457 8.2499609 -1.6697017 7
3.6403828 9.199255 -1.6254203 20
1.1651239 2.9442708 -1.7790954 3
3.8456776 9.7180357 -1.4688331 14
1.2287384 3.1050246 -1.7755415 7
4.1722226 10.543217 -1.3259764 44
1.2974972 3.2787781 -1.7711668 8
4.3231778 10.924681 -1.0961249 78
1.3675921 3.4559083 -1.7592419 8
4.2924662 10.847072 -0.81573218 28
1.4528403 3.6713307 -1.7579157 7
4.2740173 10.800452 -0.54167211 50
1.5441974 3.9021902 -1.7529037 7
4.1480222 10.482061 -0.26172495 28
1.6445479 4.1557765 -1.7452199 8
4.4074492 11.137633 0 59
1.7551346 4.4352288 -1.7360942 7
1.8768578 4.7428236 -1.7235098 8
4.6246724 11.686558 0.58611274 27
2.0232484 5.1127529 -1.7157586 13
2.2021847 5.5649257 -1.7161183 7
4.8053226 12.143061 1.2183707 40
2.3913839 6.0430322 -1.7013432 6
2.6173346 6.6140103 -1.6853884 6
34.751019 87.815895 13.27294 100
2.9110425 7.3562107 -1.6815898 9
3.2529531 8.2202196 -1.6656283 7
3.6691234 9.1920815 -1.6260689 24
1.1725614 2.9375627 -1.7771361 4
3.8715556 9.6992254 -1.4677197 14
1.2353265 3.0948052 -1.7717859 7
4.1939111 10.506807 -1.3229566 68
1.3065567 3.2732546 -1.7702692 8
4.3777184 10.967291 -1.1016984 87
1.3758291 3.4467995 -1.7566751 8
4.4059887 11.038116 -0.83107865 23
1.4596624 3.6568234 -1.7530351 7
4.4075093 11.041924 -0.55443597 44
1.5530313 3.8907359 -1.7498204 7
4.3288326 10.844819 -0.2711021 32
1.6561795 4.1491485 -1.7444923 8
4.25808 10.667566 0 87
1.7661954 4.4247656 -1.734042 7
4.3777542 10.967381 0.27416593 31
1.8902186 4.7354751 -1.7228696 8
4.4623156 11.179229 0.56133032 6
2.0362849 5.1014085 -1.7139714 12
2.212271 5.5422978 -1.7111567 7
2.4064333 6.0287232 -1.6993172 6
4.9465322 12.392314 1.5603687 5
2.6340601 6.5989861 -1.6835439 6
34.913754 87.467773 13.23592 58
2.9263277 7.3311901 -1.6778475 9
3.2707694 8.1941042 -1.6622957 8
3.6888871 9.1671515 -1.6234751 24
1.1788082 2.9294236 -1.774197 4
3.8845811 9.6534653 -1.4624311 14
1.243965 3.0913432 -1.7717859 7
4.2173061 10.480311 -1.3210981 44
1.3103558 3.2563288 -1.7630875 6
4.4425273 11.040002 -1.1102445 74
1.3854501 3.4429436 -1.7566751 8
4.3705115 10.861038 -0.81866199 40
1.4705516 3.6544273 -1.7538486 7
4.4823327 11.138922 -0.55993283 50
1.5645803 3.8880954 -1.7505912 7
4.4061284 10.949548 -0.27402666 104
1.6608062 4.1272235 -1.7372175 7
4.3834238 10.893126 0 49
1.7785462 4.419816 -1.734042 7
4.375525 10.873496 0.2721234 20
1.9020218 4.7266617 -1.7215891 8
2.0455353 5.0833035 -1.7098011 11
2.2270234 5.5343146 -1.7106055 7
4.9034319 12.185383 1.2254305 5
2.4189274 6.0112095 -1.6962782 6
4.5621362 11.337238 1.4291183 2
2.6430352 6.5681338 -1.6775494 6
35.225922 87.538963 13.261527 58
2.940218 7.3066545 -1.674105 9
3.2833693 8.1594105 -1.6571114 8
3.7040842 9.1312103 -1.6189356 20
1.1856726 2.922889 -1.7722377 4
3.896632 9.6058741 -1.4568641 13
1.2525923 3.0878575 -1.7717859 7
4.251781 10.481379 -1.3227242 44
1.3180997 3.2493448 -1.7612921 6
4.4703431 11.020171 -1.1095014 83
1.3916608 3.4306855 -1.7523967 8
4.3993225 10.845094 -0.81838292 25
1.4786899 3.6452272 -1.7514081 7
4.5734978 11.274467 -0.56738615 27
1.5719626 3.8751607 -1.7467368 7
4.4953108 11.081721 -0.27764755 30
1.6723243 4.1225696 -1.7372175 7
4.2469239 10.469405 0 23
1.7880551 4.407866 -1.731306 7
4.4148893 10.883469 0.27268043 18
1.9116516 4.712553 -1.7183878 8
4.5336957 11.176347 0.56244832 11
2.0575686 5.0722637 -1.7080139 11
4.6168137 11.381247 0.85884166 26
2.2388549 5.519166 -1.7078491 7
2.4349759 6.0026379 -1.6957716 6
2.6584389 6.5535135 -1.6757048 6
35.556583 87.653145 13.293816 58
2.9598739 7.2966032 -1.6736892 9
3.3009689 8.1374607 -1.6545193 8
3.735647 9.1311378 -1.620881 20
1.1950009 2.9209716 -1.7732173 4
3.9251189 9.5942698 -1.4568641 13
1.2597436 3.0792236 -1.7689689 7
4.2888818 10.483425 -1.3245826 42
1.3304428 3.2520356 -1.7648829 8
4.5067945 11.016074 -1.1104302 74
1.4011503 3.4248681 -1.7515411 8
4.51685 11.040653 -0.83414787 22
1.4888083 3.6391325 -1.7505946 7
4.3875556 10.724615 -0.54036778 50
1.5862497 3.8773112 -1.7498204 9
4.4448938 10.864769 -0.27254117 51
1.6859611 4.1210384 -1.7386726 8
4.4915295 10.978762 0 93
1.798992 4.3973227 -1.7292538 7
4.4297519 10.827758 0.27161273 66
1.9277794 4.712121 -1.7203087 8
2.0726106 5.0661359 -1.7080139 11
4.6059933 11.258549 0.85061044 7
2.2523105 5.5053811 -1.705644 7
4.6674008 11.408648 1.1500022 5
2.4461837 5.97927 -1.6912131 6
5.0764055 12.408389 1.5678023 15
2.6719787 6.5311871 -1.6720159 6
35.899765 87.750725 13.324712 58
