# .PCD v0.7 - Point Cloud Data file format
VERSION 0.7
FIELDS x y z intensity
SIZE 4 4 4 4
TYPE F F F F
COUNT 1 1 1 1
WIDTH 1462
HEIGHT 1
VIEWPOINT 0 0 0 1 0 0 0
POINTS 1462
DATA ascii
8.209506 11.65067 -0.66465241 76
2.2960892 3.2585366 -1.6650271 9
2.4327106 3.4524255 -1.6491928 9
8.4522848 11.995214 0 100
2.5861731 3.6702147 -1.6341723 7
8.6930161 12.336852 0.3503902 25
2.7633929 3.9217193 -1.6210724 8
10.383287 14.735631 0.8406446 40
2.9648259 4.2075868 -1.6061407 6
10.525543 14.937515 1.2777991 44
3.1936882 4.5323806 -1.5898763 7
3.443661 4.8871341 -1.565094 6
12.706465 18.03261 2.5797071 21
3.7384393 5.3054743 -1.5378305 6
7.9433703 11.272979 1.9381248 41
4.0768862 5.7857871 -1.5044491 9
10.80612 15.335702 3.0822356 23
4.4842086 6.3638458 -1.4667751 6
14.143201 20.071581 4.6262107 10
1.6935463 2.388344 -1.7363555 3
5.0296712 7.0931544 -1.428606 5
1.7659898 2.4905083 -1.7154163 4
5.6283135 7.937397 -1.367515 5
1.865153 2.6303544 -1.7145103 6
6.4150038 9.0468359 -1.2969388 36
1.9558982 2.7583287 -1.6984529 6
6.6346707 9.3566236 -1.0701152 43
2.0578058 2.9020452 -1.6839436 6
7.7089639 10.871659 -0.93194652 18
2.1739182 3.0657945 -1.6733147 7
8.1908836 11.551291 -0.66036671 25
2.3046808 3.2502036 -1.6642565 9
8.5676699 12.082659 -0.34389117 32
2.4364786 3.4360733 -1.644828 9
8.686821 12.250693 0 26
2.5981395 3.6640573 -1.6348562 7
8.830205 12.452902 0.35442886 16
2.7750177 3.9135022 -1.6210724 8
10.515947 14.830241 0.84781843 35
2.9761941 4.1972136 -1.605545 5
10.567513 14.902962 1.2775201 44
3.2082353 4.5244522 -1.5904276 7
11.558841 16.300993 1.8643414 40
3.4503138 4.8658462 -1.5615485 6
3.7417831 5.2768946 -1.5327581 6
4.0849843 5.7608981 -1.5011225 9
4.4985251 6.3440986 -1.4652938 9
13.282984 18.732487 4.3266344 3
1.6957982 2.3783 -1.7322748 3
5.0424943 7.071929 -1.4269848 5
1.7745283 2.4887164 -1.7173758 4
5.6352754 7.903285 -1.3641748 6
1.8689567 2.6211491 -1.7116934 6
6.4328985 9.021925 -1.2957772 27
1.9610372 2.750289 -1.6966575 6
6.6325521 9.3019323 -1.0658422 50
2.0632968 2.8937047 -1.6822324 6
7.714232 10.818952 -0.92915624 15
2.1766329 3.0526545 -1.6692473 7
8.1538229 11.435463 -0.65496302 31
2.3110385 3.2411542 -1.6627146 9
8.9057245 12.48998 -0.35614645 35
2.4454656 3.4296832 -1.644828 9
8.7142172 12.221397 0 39
2.6044493 3.6526527 -1.6328042 7
10.132699 14.210771 0.40521407 33
2.7808533 3.9000535 -1.6185114 8
10.560535 14.810797 0.8482843 40
2.9827378 4.1831899 -1.6031621 6
10.623865 14.899614 1.2796128 46
3.2089074 4.5003848 -1.5849149 7
11.917089 16.713318 1.9150603 14
3.4641633 4.8583727 -1.5620549 6
9.9930201 14.014875 2.0128915 16
3.753325 5.2639127 -1.5318359 6
14.813151 20.774948 3.5859344 23
4.0977798 5.7469988 -1.500291 9
4.5082712 6.3226991 -1.4630719 9
14.237967 19.968271 4.620656 14
1.7002516 2.3687685 -1.7292142 3
5.0485735 7.033607 -1.4224455 5
1.7823375 2.4831295 -1.7173758 4
5.6531458 7.8758893 -1.3625048 6
1.872033 2.6080921 -1.7069987 6
6.4588914 8.9984436 -1.2953126 18
1.9686251 2.7426629 -1.6957598 6
6.6803193 9.3069344 -1.0688148 43
2.072377 2.8872087 -1.6822324 6
7.7284026 10.76711 -0.92678452 13
2.1894078 3.0502546 -1.6716876 7
8.2165003 11.447122 -0.65710586 27
2.3179803 3.2293801 -1.6604021 9
9.0871572 12.66011 -0.36180988 100
2.4551406 3.4204702 -1.6441003 9
8.8610258 12.345066 0 68
2.614815 3.6429262 -1.6321201 7
8.9309254 12.442449 0.35558939 9
2.7897763 3.8866804 -1.6165907 8
10.648949 14.835977 0.85163832 35
2.9914107 4.1675949 -1.6007789 6
10.657821 14.848337 1.2780781 27
3.2207866 4.4871583 -1.5838124 7
3.4748955 4.8411794 -1.5600289 6
16.402063 22.851143 3.2893879 21
3.7687075 5.250514 -1.5313747 6
14.814821 20.639818 3.5706255 15
4.1066871 5.7213831 -1.4969643 9
4.5166502 6.2925386 -1.4593689 6
14.320108 19.95059 4.6269512 14
1.7008185 2.3556426 -1.7230932 3
5.060111 7.0082803 -1.4201758 5
1.7862035 2.4739013 -1.7144367 4
5.6635256 7.8440127 -1.3597213 6
1.8824108 2.6071489 -1.7098156 6
6.4793458 8.9739285 -1.2943834 15
1.9720924 2.7313583 -1.692169 6
6.6573267 9.2204323 -1.0610118 69
2.0751412 2.8740816 -1.6779541 6
7.7409248 10.721222 -0.9246918 14
2.1925704 3.0367217 -1.6676204 7
8.2273874 11.394975 -0.65542889 36
2.3280709 3.2243905 -1.6611731 9
8.8696632 12.28453 -0.35178283 26
2.4614124 3.4090693 -1.6419181 9
8.9680557 12.420805 0 57
2.6205783 3.6295147 -1.629384 7
2.7928562 3.8681207 -1.6121092 8
10.695019 14.812656 0.85201097 40
2.9974506 4.151485 -1.5978003 5
10.686401 14.800721 1.2765435 44
3.2321808 4.4765873 -1.5832611 7
11.969432 16.577726 1.907629 20
3.4816067 4.8220434 -1.5569899 6
3.7799387 5.2352352 -1.5299914 6
8.0622635 11.166278 1.9356197 5
4.1192141 5.7051334 -1.4957168 9
11.040977 15.291811 3.0987718 31
4.5238519 6.2655587 -1.4560362 9
14.295234 19.798973 4.6010299 7
1.7152897 2.3600287 -1.7302345 3
5.0704989 6.9763856 -1.4169334 5
1.792941 2.4668672 -1.713457 4
5.6788239 7.8133659 -1.3574946 5
1.8895534 2.5997941 -1.7088766 6
6.4899864 8.9294271 -1.2908989 15
1.9806631 2.7251496 -1.692169 6
6.7003078 9.2188025 -1.0632411 36
2.0852227 2.8690109 -1.6788098 6
7.7534528 10.667801 -0.92218053 14
2.201025 3.0283408 -1.6668068 7
8.2431755 11.341599 -0.65384501 29
2.3381886 3.2170613 -1.6611731 9
2.4732049 3.402827 -1.6426455 9
8.9694033 12.3408 0 77
2.6264424 3.6136632 -1.6259637 7
9.0857162 12.500833 0.35879251 42
2.808336 3.8639264 -1.6140299 8
9.340229 12.851011 0.74086285 17
3.0115995 4.1435924 -1.5983959 5
10.745747 14.784831 1.2780781 41
3.2394459 4.4570808 -1.5799534 7
11.94418 16.433729 1.8953673 20
3.4899123 4.801692 -1.5539508 6
3.7929337 5.2186122 -1.528608 6
11.692999 16.088135 2.7951529 12
4.1302152 5.6826701 -1.4932219 9
4.5400457 6.2465467 -1.4549253 6
1.7147663 2.3455091 -1.7230932 3
5.077147 6.9446745 -1.4133668 5
1.7987931 2.4604435 -1.7124772 4
5.6900988 7.7830887 -1.3549894 5
1.8957634 2.5930822 -1.7079377 6
6.4973097 8.8872156 -1.2874144 17
1.9872099 2.7181654 -1.6912713 6
6.7389512 9.2177401 -1.0652848 44
2.0953593 2.8660958 -1.680521 6
7.7667251 10.623561 -0.92022741 13
2.2073159 3.0192332 -1.66518 7
2.3417165 3.2030704 -1.6573187 9
2.473901 3.3838763 -1.6368256 9
9.0415993 12.367373 0 100
2.6376317 3.6078322 -1.6266477 7
9.2846136 12.699775 0.3652451 31
2.8124046 3.8468916 -1.6101884 8
10.801589 14.774739 0.85350162 15
3.019778 4.1305432 -1.5966086 5
10.802296 14.775704 1.2798918 22
3.2530131 4.4495692 -1.5805047 7
3.5044489 4.7934904 -1.5544574 6
8.2183571 11.241317 1.6284329 20
3.8005998 5.1985745 -1.5258414 6
11.703978 16.009052 2.7870808 9
4.141449 5.6647983 -1.4915586 9
4.5470309 6.2195654 -1.4515924 6
1.7243675 2.3448682 -1.7261536 3
5.0895076 6.9209285 -1.4114213 5
1.8046249 2.4540055 -1.7114977 4
5.7036004 7.7559977 -1.3530409 5
1.9019518 2.5863547 -1.7069987 6
6.5173974 8.8626337 -1.2864852 22
1.992676 2.7097251 -1.6894759 6
6.7587705 9.1908627 -1.0643559 48
2.099072 2.8544071 -1.6770984 6
7.7715435 10.568074 -0.9172976 13
2.218987 3.0174725 -1.6676204 7
8.351367 11.356543 -0.65738535 28
2.3473732 3.1920576 -1.6550062 9
2.4822383 3.3754528 -1.6360981 9
9.3332214 12.69171 0 46
2.6421309 3.5928814 -1.6232276 7
2.822015 3.8374958 -1.6095482 8
10.857014 14.763827 0.85461962 17
3.0267777 4.1159406 -1.5942258 5
10.858885 14.766372 1.2817054 19
3.2620108 4.4358206 -1.5788509 7
10.29801 14.003671 1.6217074 9
3.5097988 4.7727728 -1.5509118 6
8.3073874 11.296737 1.6398157 4
3.8035743 5.1722617 -1.5212302 6
10.958985 14.902493 2.5997536 10
4.1456637 5.6374493 -1.4874004 9
4.5539041 6.1925917 -1.4482598 6
8.5978079 11.691664 2.7343264 5
1.7278397 2.3358951 -1.7230932 3
5.0982509 6.8924098 -1.4085032 5
1.8114704 2.4489567 -1.7114977 4
5.7146363 7.7257109 -1.3505359 5
1.9028655 2.5725152 -1.701365 6
6.5303063 8.8284292 -1.2841622 22
2.0012977 2.7055874 -1.6903737 6
6.7950664 9.1863623 -1.066028 48
2.1059594 2.8470812 -1.6762427 6
7.7630563 10.495004 -0.91283321 19
2.220885 3.0024512 -1.6627395 7
8.3961153 11.350847 -0.65841025 29
2.3540826 3.1825233 -1.6534646 9
9.1485062 12.368016 -0.35716772 39
2.4894383 3.3655128 -1.6346433 8
8.4777908 11.461266 0 8
2.6487999 3.5809565 -1.6211755 7
2.8270857 3.8219838 -1.606347 8
8.6016512 11.628715 0.67452806 22
3.0314469 4.0982633 -1.5906512 6
10.894143 14.727973 1.2810079 24
3.2686679 4.4189663 -1.5760945 7
12.552754 16.970276 1.9693092 14
3.5219619 4.7613983 -1.5504054 6
10.464085 14.146568 2.0577259 10
3.8168447 5.1600556 -1.520769 6
10.581263 14.304984 2.5006623 9
4.1532459 5.6148415 -1.4844896 9
8.0769253 10.919329 2.231427 23
4.566503 6.1735311 -1.4467787 6
1.7364103 2.3338206 -1.7251335 3
5.1033435 6.8591437 -1.4046123 5
1.8130987 2.4368935 -1.7065992 5
5.7267323 7.6970091 -1.3483092 5
1.9089886 2.5657742 -1.7004261 6
6.5347791 8.7830639 -1.280213 17
2.008846 2.6999876 -1.6903737 6
6.8206954 9.1673489 -1.066028 53
2.1128232 2.8397381 -1.675387 6
7.7816181 10.458877 -0.91157764 18
2.2270801 2.993305 -1.6611125 7
8.5553856 11.498858 -0.66837907 26
2.3629615 3.1759362 -1.6534646 9
9.1424313 12.287876 -0.35558939 41
2.4999399 3.3600419 -1.6353707 9
9.3442678 12.559155 0 30
2.6621563 3.5780687 -1.6232276 7
2.8343556 3.8095129 -1.6044263 8
8.6269398 11.59503 0.67396909 28
3.038322 4.0836539 -1.5882683 6
10.955479 14.724701 1.2833796 24
3.2775536 4.4051929 -1.5744407 7
10.271459 13.805344 1.6053586 8
3.528316 4.7422299 -1.5473663 6
10.457307 14.055133 2.048666 12
3.8242707 5.1400075 -1.5180023 6
16.222589 21.803955 3.8194671 12
4.1630716 5.5953727 -1.4824104 9
8.1062117 10.895145 2.2311027 5
4.5790334 6.1544456 -1.4452974 6
1.7381732 2.3217723 -1.7200326 3
5.1118474 6.8281717 -1.4013698 5
1.8203219 2.4315028 -1.7065992 7
5.7400517 7.6672983 -1.3460824 5
1.917652 2.561512 -1.701365 6
6.5500989 8.7493229 -1.2781224 14
2.0147069 2.6911533 -1.6885781 6
6.8538361 9.1550407 -1.0669569 57
2.1169074 2.827668 -1.6719644 6
7.8221846 10.448517 -0.91269368 12
2.2348578 2.9852207 -1.6602991 7
8.5786943 11.459028 -0.66754055 31
2.3602092 3.1526597 -1.6449852 7
9.1488972 12.220678 -0.35442886 24
2.5065501 3.3481348 -1.6331882 9
8.5844212 11.466678 0 2
2.6705091 3.5671439 -1.6218594 7
9.9769115 13.326702 0.38650617 39
2.8411052 3.7950187 -1.6018654 8
9.3449697 12.482584 0.72716737 6
3.0527151 4.0776772 -1.5894598 6
10.988364 14.677753 1.282124 38
3.2871547 4.390831 -1.5727868 7
11.245637 15.021407 1.7506416 5
3.534256 4.7208972 -1.5438207 6
10.456109 13.966792 2.0403032 14
3.8360076 5.1239638 -1.5166191 6
12.153099 16.233553 2.849987 9
4.1761403 5.5782971 -1.481163 9
4.5878534 6.1282449 -1.4423349 6
11.195775 14.954803 3.5197415 8
1.7495995 2.3217959 -1.7241133 3
5.124958 6.8010464 -1.3991001 5
1.8237537 2.4202023 -1.7026805 5
5.7533817 7.6349931 -1.3435771 5
1.9225012 2.5512445 -1.6985483 6
6.5524468 8.6953878 -1.273244 12
2.0199242 2.6805291 -1.6858851 6
6.8981409 9.1541386 -1.0693721 53
2.1290433 2.825335 -1.6745315 6
7.8333564 10.395211 -0.91018248 9
2.2475233 2.9825633 -1.6627395 7
8.4908104 11.267681 -0.65794438 27
2.3767653 3.1540728 -1.6496103 9
9.2245445 12.241381 -0.35586792 52
2.5170555 3.3402443 -1.6331882 9
2.6760468 3.5512328 -1.6184393 7
9.4664097 12.562346 0.36519867 38
2.8541534 3.7875881 -1.6025056 8
3.0597644 4.0604429 -1.586481 6
11.028415 14.635196 1.2814264 5
3.2951467 4.3728056 -1.5700305 7
11.271197 14.957379 1.7472975 16
3.5502331 4.7113171 -1.5443274 6
16.425947 21.79796 3.1918213 25
3.8392017 5.0947909 -1.5115466 6
12.283894 16.301271 2.8686361 12
4.1889338 5.5589008 -1.4794997 9
8.1951818 10.87537 2.2372632 22
4.6011677 6.1059537 -1.4404833 6
1.7550368 2.3155305 -1.7230932 3
5.1332002 6.7725544 -1.3961821 5
1.8326113 2.4178796 -1.7046399 5
5.7639127 7.6046929 -1.3410721 4
1.9338845 2.5514956 -1.702304 6
6.5623026 8.6580591 -1.2704564 11
2.0295603 2.677727 -1.6876805 5
6.9320955 9.1459503 -1.0706726 48
2.1336486 2.815057 -1.6719644 6
7.841866 10.346268 -0.90781075 9
2.254739 2.9748192 -1.6619259 7
8.4715557 11.177057 -0.6540314 24
2.3766453 3.1356578 -1.6434436 7
2.5184953 3.3228097 -1.628096 9
2.6825469 3.5392532 -1.6163872 7
9.1475773 12.068974 0.35159716 28
2.8635738 3.7780933 -1.6018654 8
10.716156 14.1385 0.82732171 22
3.0653245 4.0442758 -1.5835023 6
3.3050218 4.3605232 -1.568928 7
3.5575314 4.693675 -1.5417948 6
10.494404 13.845928 2.031708 10
3.84636 5.0747447 -1.5087799 6
4.1961679 5.5362687 -1.476589 9
8.1992912 10.817842 2.23013 23
4.6063275 6.0774183 -1.4367803 6
10.570809 13.946734 3.2971888 21
1.7556399 2.3021061 -1.716972 3
5.1424999 6.7431712 -1.3932639 5
1.8440061 2.4179776 -1.7085586 4
5.7756391 7.5733838 -1.3385669 4
1.9350207 2.5373216 -1.6966703 6
6.5771194 8.6243353 -1.2683656 13
2.0364122 2.6702726 -1.6867827 5
6.9712758 9.1411781 -1.0725304 61
2.1376061 2.8029644 -1.6685418 6
7.8604283 10.307091 -0.90641558 11
2.2569075 2.9593999 -1.6570452 7
8.4780264 11.116924 -0.65198171 29
2.3848186 3.127125 -1.6426727 7
2.5283425 3.3153229 -1.628096 9
9.0887938 11.917802 0 53
2.691896 3.5297844 -1.6157032 7
2.8690257 3.762048 -1.5986643 8
9.4702396 12.417977 0.72828537 25
3.0773098 4.0351634 -1.5835023 5
3.3121152 4.3430548 -1.5661715 7
3.5702682 4.6815615 -1.5412884 6
10.51014 13.781561 2.0268297 26
3.860219 5.0617633 -1.5083189 6
12.510884 16.405064 2.8995328 12
4.2066436 5.5160174 -1.4745098 9
8.2337437 10.796606 2.2307785 23
4.6136117 6.0496597 -1.4334476 6
10.603798 13.904371 3.2945967 6
1.7631084 2.2985597 -1.7179923 3
5.1516995 6.7162571 -1.3906698 5
1.8454447 2.4059014 -1.7036601 5
5.7883267 7.5462265 -1.3366185 5
1.9420983 2.5319083 -1.6966703 6
6.5842495 8.583869 -1.2651135 13
2.0395098 2.6589034 -1.683192 6
7.0113177 9.1406364 -1.0747598 65
2.1465249 2.798419 -1.6693975 6
7.8418217 10.223362 -0.90097457 13
2.2629383 2.9501867 -1.6554182 7
8.4701271 11.042482 -0.64900041 38
2.3890488 3.1145966 -1.6395893 7
2.5341887 3.3038151 -1.6259135 9
9.4117413 12.270062 0 8
2.6983106 3.5177803 -1.613651 7
8.7764082 11.441781 0.33479252 25
2.8783662 3.7525184 -1.5980239 8
11.057613 14.415781 0.84725946 30
3.0839174 4.0204949 -1.5811192 6
11.198092 14.598924 1.2865883 57
3.3207192 4.3292127 -1.5645177 7
10.543034 13.744925 1.616134 31
3.5797939 4.6669679 -1.5397688 6
10.537702 13.737974 2.024739 26
3.8696005 5.0447879 -1.5064744 6
10.621978 13.847844 2.4527869 8
4.2125044 5.4918308 -1.4711832 9
8.2914858 10.809588 2.238236 20
4.6257019 6.0305152 -1.4319664 6
1.7653179 2.2881787 -1.7139114 3
5.1607933 6.689343 -1.3880759 5
1.8521569 2.400738 -1.7036601 4
5.7972822 7.5143509 -1.3338351 5
1.9448473 2.5208821 -1.6929146 6
6.5875702 8.5387106 -1.2611644 12
2.0480192 2.6546121 -1.6840897 6
7.0514159 9.1399393 -1.0769892 57
2.153228 2.790982 -1.6685418 6
7.8703437 10.201422 -0.90097457 14
2.2700529 2.9424088 -1.6546048 7
8.5582905 11.093128 -0.6533792 31
2.4045017 3.1166792 -1.6442144 9
9.3530493 12.123282 -0.35549656 41
2.5456817 3.2996745 -1.6273683 9
2.7069764 3.5087426 -1.6129669 7
2.8842056 3.7384641 -1.595463 8
11.09173 14.376934 0.84679365 32
3.0893033 4.0043087 -1.5781405 6
11.249791 14.581811 1.2878441 63
3.3292739 4.3153553 -1.5628638 7
10.570433 13.701238 1.614462 29
3.586905 4.6492929 -1.5372362 6
10.542054 13.664454 2.0182347 31
3.8741646 5.0216341 -1.5027853 6
4.2242413 5.4753981 -1.4699358 9
8.3517818 10.825455 2.2463422 22
4.635323 6.0082364 -1.4297446 6
8.4002476 10.888275 2.5910184 43
1.7735523 2.2839806 -1.7149317 3
5.1672564 6.6543927 -1.3841851 5
1.8554118 2.3893993 -1.6997415 5
5.8074975 7.4788947 -1.3307732 4
1.95384 2.516155 -1.6938536 6
6.6046143 8.5054216 -1.259306 13
2.0486755 2.6382842 -1.6778058 6
7.0935273 9.1350441 -1.0790328 57
2.1586587 2.7799208 -1.6659749 6
7.8913388 10.162466 -0.899719 13
2.2770436 2.9323766 -1.6529778 7
8.6788673 11.176644 -0.65990084 29
2.4120166 3.106195 -1.6426727 9
9.3162823 11.997508 -0.35266486 85
2.5446088 3.276947 -1.6200936 8
9.3531389 12.044971 0 60
2.7122221 3.4927995 -1.6095468 7
2.8912871 3.7233992 -1.5929022 8
11.112332 14.31046 0.84493023 35
3.099525 3.9915681 -1.576949 6
11.285752 14.533792 1.2867279 52
3.3369186 4.2972836 -1.5601076 7
10.609758 13.663246 1.6139046 42
3.6003058 4.6364737 -1.5367298 6
3.8839526 5.0017538 -1.5004798 6
13.929006 17.937773 3.1917963 7
4.2354217 5.4543753 -1.4678566 9
8.3651695 10.772665 2.2408299 31
4.6421199 5.9781213 -1.4260415 6
8.8020668 11.335301 2.7039614 9
1.7852173 2.2857978 -1.7200326 3
5.1773143 6.6290498 -1.3819153 5
1.8631498 2.3855829 -1.7007211 4
5.8173866 7.4486008 -1.3282682 5
1.9619452 2.5120809 -1.6947924 6
6.6087747 8.4618959 -1.2555891 12
2.0604348 2.6381872 -1.6813966 5
7.1337166 9.1340332 -1.0812622 57
2.1641874 2.7710326 -1.6642634 6
7.9049492 10.121522 -0.89804482 12
2.2818491 2.9216869 -1.6505374 7
8.7075834 11.149217 -0.65971458 29
2.4104576 3.0863576 -1.6357352 7
9.2574434 11.85326 -0.34918323 27
2.5583363 3.2757018 -1.6230036 9
9.6612597 12.370308 0 28
2.7219646 3.4852121 -1.6095468 7
9.6685019 12.37958 0.36468804 8
2.8981738 3.7108312 -1.5909814 8
11.139951 14.263628 0.84399855 35
3.105958 3.9768786 -1.574566 6
11.368045 14.555681 1.2914712 22
3.3441718 4.281888 -1.5579025 7
16.580376 21.229567 2.5130985 9
3.6060932 4.6172528 -1.5336907 6
12.542611 16.059599 2.3829479 15
3.8979042 4.9908886 -1.5004798 6
4.2446146 5.4348178 -1.4657775 9
4.6563754 5.962038 -1.425301 6
1.7877407 2.2750802 -1.7159518 3
5.1872077 6.601244 -1.3793215 5
1.872375 2.3827858 -1.7026805 5
5.8198848 7.4063892 -1.3238146 4
1.9661175 2.5020826 -1.6919756 6
6.6264915 8.4328775 -1.2541953 13
2.0704627 2.6348722 -1.683192 5
7.179245 9.1363125 -1.084049 70
2.1712837 2.7631772 -1.6634078 6
7.9287844 10.090177 -0.89734727 13
2.2893798 2.9134665 -1.6497239 7
8.5604095 10.893983 -0.6461122 27
2.4230258 3.0835445 -1.6380475 7
8.8404236 11.25033 -0.33219293 60
2.5668941 3.2666311 -1.6222761 9
9.6781521 12.316423 0 39
2.7288108 3.4726868 -1.6074947 7
2.9056606 3.6977458 -1.5890607 8
11.094587 14.118979 0.83738381 17
3.1118469 3.9601386 -1.5715872 6
11.400092 14.507766 1.2902157 30
3.3568628 4.271946 -1.5579025 7
11.209956 14.265799 1.6926769 10
3.6126053 4.597404 -1.5306517 6
16.620846 21.151701 3.1458256 19
3.9018748 4.9655285 -1.4963298 6
11.931007 15.183409 2.7138755 34
4.2583055 5.4191232 -1.4649459 9
10.365879 13.191626 2.7563732 8
4.6619029 5.9327412 -1.4215978 6
8.6364813 10.990793 2.6336036 30
1.7880815 2.2616694 -1.7098308 3
5.1920824 6.5672469 -1.3754306 5
1.8729481 2.3690135 -1.6968025 5
5.8283224 7.3720007 -1.3207529 5
1.9746276 2.4976237 -1.6929146 6
6.6293058 8.3851309 -1.2500138 13
2.0749457 2.6245117 -1.6804988 5
7.2211399 9.1337175 -1.0862783 70
2.1794722 2.7567229 -1.6634078 6
7.9327011 10.033741 -0.89441752 10
2.2980139 2.9066613 -1.6497239 7
8.6434927 10.932792 -0.64993203 34
2.4252968 3.0676563 -1.6334226 7
8.7981205 11.128374 -0.3293612 49
2.5719528 3.2531552 -1.6193662 9
9.6948051 12.262553 0 19
2.7391021 3.4645753 -1.6074947 7
2.9166186 3.6891086 -1.5890607 8
11.161208 14.117344 0.83924711 27
3.1235826 3.9508886 -1.5715872 6
11.430714 14.45823 1.2888206 27
3.3599837 4.2499022 -1.5534922 7
3.6226296 4.5821123 -1.5291321 6
11.206127 14.17416 2.1130137 6
3.9105551 4.9462972 -1.4940242 6
11.89862 15.050065 2.6963398 17
4.2634454 5.3926535 -1.4612035 9
4.6758275 5.914258 -1.4204869 6
7.6683078 9.6993208 2.3295839 17
1.793996 2.2569807 -1.7098308 3
5.2006598 6.5428176 -1.3731608 5
1.8769735 2.3613725 -1.6948432 5
5.8377414 7.3443136 -1.318526 5
1.9734674 2.482769 -1.686342 6
6.6339288 8.3459768 -1.2467617 11
2.0784729 2.6148736 -1.6778058 5
7.2499819 9.1210175 -1.0870215 61
2.1833067 2.7467625 -1.6608409 6
7.9552169 10.008256 -0.89399898 9
2.3022044 2.8963447 -1.6472834 7
8.9207096 11.222918 -0.66856539 36
2.4333191 3.0612967 -1.6334226 7
8.9118242 11.21174 -0.33251786 39
2.5746639 3.2391191 -1.6157289 9
9.4319305 11.866072 0 15
2.7411456 3.4485655 -1.6033905 7
2.9203711 3.6740444 -1.5858597 8
11.209314 14.102153 0.84008557 37
3.1303511 3.938215 -1.5698 6
11.526871 14.501662 1.2953777 51
3.3722939 4.2425971 -1.5540435 7
3.6358166 4.5741282 -1.5296388 6
3.9198573 4.9314723 -1.4926409 6
11.388339 14.327379 2.5721974 10
4.2702436 5.3722849 -1.4587085 9
10.790603 13.575382 2.8491063 18
4.6827331 5.8912272 -1.4178948 6
7.6948957 9.6807518 2.3299541 4
1.7974622 2.2476172 -1.7067702 3
5.2114244 6.5165687 -1.3708912 5
1.8839722 2.3557925 -1.6948432 5
5.8360066 7.2975712 -1.3132375 4
1.9830316 2.4796603 -1.6882199 6
6.6499801 8.3153954 -1.2451355 13
2.0828741 2.6045072 -1.6751126 5
7.273284 9.094799 -1.0864642 61
2.1903186 2.7388601 -1.6599851 6
7.963696 9.9581175 -0.89162725 12
2.3073652 2.8852198 -1.644843 7
8.9889097 11.240085 -0.67117411 17
2.4412394 3.0526211 -1.6326516 7
8.9700308 11.216477 -0.33344632 45
2.584264 3.2314649 -1.6157289 8
9.5470438 11.937997 0 55
2.7513666 3.4404166 -1.6033905 7
9.4707937 11.84265 0.35206136 28
2.9265265 3.6594434 -1.5832986 8
11.166263 13.962731 0.83375025 37
3.136061 3.9214535 -1.5668212 6
11.622187 14.532837 1.3012373 34
3.3800652 4.2265658 -1.5518384 7
12.132504 15.170959 1.8123218 50
3.6445398 4.5572753 -1.5276127 6
11.452607 14.320787 2.1443744 31
3.9283957 4.91222 -1.4903352 6
4.2837229 5.356535 -1.4578769 9
8.7958183 10.998635 2.3137841 16
4.6916013 5.8665614 -1.4153028 6
1.8073589 2.2462943 -1.7098308 3
5.2183666 6.4856997 -1.3676488 5
1.8898612 2.3488331 -1.6938634 4
5.8427362 7.261704 -1.3098973 5
1.988167 2.4710135 -1.686342 6
6.6596823 8.2770529 -1.2423478 13
2.0928342 2.6011 -1.676908 5
7.3039846 9.0778303 -1.0870215 65
2.198436 2.7323484 -1.6599851 6
7.9807038 9.9188976 -0.89023215 15
2.3147714 2.8769369 -1.6440296 7
8.781765 10.914505 -0.65328604 59
2.4468162 3.04105 -1.630339 7
9.1148272 11.328455 -0.33757782 41
2.5926738 3.2223308 -1.6150012 9
9.5335302 11.848844 0 48
2.758029 3.4278443 -1.6013383 7
9.2301416 11.471774 0.34184861 5
2.9326215 3.6448383 -1.5807376 8
11.271517 14.008919 0.83850169 45
3.1416996 3.9046929 -1.5638425 6
11.697778 14.538701 1.3048646 8
3.3901818 4.2135215 -1.5507358 7
11.895346 14.78425 1.7703346 20
3.647131 4.5328736 -1.5230542 6
3.9331951 4.888411 -1.4866463 6
4.2959199 5.3392272 -1.4566295 9
4.6978998 5.8388319 -1.41197 6
7.7596049 9.6441031 2.332176 32
1.8144065 2.2406056 -1.7098308 3
5.2275372 6.455471 -1.3647306 5
1.8972306 2.3428848 -1.6938634 5
5.8455772 7.2186871 -1.3054438 4
1.9948083 2.4633832 -1.685403 6
6.6693997 8.2360229 -1.239328 13
2.0942466 2.5861795 -1.6715219 6
7.3337188 9.0563889 -1.0872073 61
2.1990454 2.715595 -1.6539955 6
7.9942451 9.8720703 -0.8882789 13
2.3214979 2.8668113 -1.6424026 7
9.048605 11.174096 -0.67052191 24
2.4563572 3.0333488 -1.630339 7
9.1340122 11.279567 -0.33697435 35
2.6004388 3.2112746 -1.6135464 9
2.7640529 3.4133213 -1.5986022 7
2.9369025 3.6267726 -1.5768962 8
11.379591 14.052626 0.84325331 32
3.1527486 3.8933203 -1.5632467 6
3.3961422 4.1938868 -1.5474283 7
3.6589174 4.5183868 -1.5220412 6
3.9497569 4.8775439 -1.4871074 6
11.389529 14.064898 2.5435278 21
4.3077464 5.3196239 -1.4549661 9
11.438729 14.125655 2.9862599 7
4.7112713 5.8179359 -1.4104887 6
8.8374987 10.913403 2.6458237 33
1.8217432 2.2368634 -1.7108508 3
5.2355752 6.4286046 -1.3621367 5
1.9015642 2.3348732 -1.6919041 5
5.8519578 7.185442 -1.302382 4
2.0016804 2.4578025 -1.685403 6
6.6685414 8.1880999 -1.2349143 11
2.1025898 2.5817063 -1.6724194 6
7.3589826 9.0358715 -1.0872073 61
2.2043378 2.7066395 -1.6522841 6
8.0054054 9.8295956 -0.88646525 13
2.3329566 2.8645666 -1.644843 7
9.0797758 11.148782 -0.67052191 24
2.4624884 3.0236151 -1.6287975 7
9.1036091 11.178045 -0.33469969 40
2.6070442 3.2011106 -1.6120914 9
9.2513046 11.359396 0 21
2.7735748 3.4055884 -1.5986022 7
9.3409843 11.469511 0.34342694 12
2.9506094 3.6229639 -1.5788169 8
11.397345 13.994454 0.84166944 27
3.1563754 3.8756177 -1.5596722 6
11.854401 14.555659 1.3126773 51
3.4078414 4.1843853 -1.5474283 7
11.757773 14.437014 1.7370794 11
3.6715219 4.5081506 -1.5220412 6
10.888437 13.369582 2.0163763 5
3.9547608 4.8559308 -1.4838796 6
4.3139386 5.2969546 -1.4520553 9
8.8472624 10.863285 2.3017874 5
4.7188134 5.7940879 -1.4078966 6
8.9945393 11.044123 2.6835947 33
1.8243233 2.2280934 -1.7077903 3
5.2411342 6.4011331 -1.3592186 5
1.9087747 2.3312361 -1.6928837 6
5.8594551 7.1563048 -1.2998768 4
2.0081077 2.452554 -1.685403 6
6.6761107 8.1537075 -1.2323591 11
2.1036799 2.569279 -1.667931 6
7.3914433 9.0273619 -1.0885078 61
2.2159967 2.7064543 -1.6557068 8
8.027319 9.8039732 -0.88604671 15
2.3358176 2.8527949 -1.6415892 7
9.1658859 11.194534 -0.67471445 26
2.4703956 3.0171583 -1.6287975 7
8.9175024 10.891177 -0.32680804 85
2.6154153 3.1942747 -1.6120914 9
9.3354931 11.40168 0 63
2.778909 3.3939536 -1.59655 7
11.229214 13.714531 0.41152743 18
2.9600837 3.6152272 -1.5788169 8
11.475709 14.015581 0.84474397 30
3.1640916 3.8643873 -1.5584807 6
10.895212 13.306605 1.2026017 9
3.4102583 4.1650372 -1.5435693 7
10.922531 13.339972 1.6085168 4
3.6759565 4.4895411 -1.5190021 7
3.9637609 4.8410439 -1.4824963 6
10.745262 13.123468 2.3837569 3
4.3228335 5.2795887 -1.4503921 9
4.7277398 5.7741113 -1.4060451 6
8.928792 10.904965 2.6554515 15
1.825456 2.2160332 -1.7026894 3
5.248806 6.3718481 -1.3563004 5
1.9145731 2.3242178 -1.6919041 4
5.8642879 7.1190195 -1.2962583 4
2.0153739 2.4465864 -1.685403 6
6.6838489 8.1139355 -1.2293391 12
2.1169739 2.5699246 -1.6724194 5
7.44731 9.0407476 -1.0927808 70
2.2205672 2.6956828 -1.6531398 8
8.0424118 9.7631779 -0.88451207 15
2.3407848 2.8416224 -1.6391487 7
9.2003222 11.168837 -0.67480761 34
2.4781611 3.0083921 -1.6280265 7
8.9230747 10.832268 -0.32583317 69
2.6225102 3.1836262 -1.6106364 9
9.3501987 11.35078 0 48
2.7877693 3.3842444 -1.5958661 7
9.6400728 11.702677 0.35201493 21
2.9635665 3.5976555 -1.5749755 8
11.077732 13.44794 0.81250823 19
3.1718991 3.8505633 -1.5566936 6
11.982433 14.546212 1.3178393 39
3.4238207 4.1563864 -1.5441206 7
11.045619 13.408956 1.6207786 11
3.6880281 4.4771237 -1.5184957 7
10.709062 13.000388 1.9696835 28
3.9694424 4.8187499 -1.4792684 6
4.3297687 5.2561722 -1.4474813 9
8.871398 10.769535 2.2923841 24
4.737349 5.7509594 -1.4038233 6
7.9726419 9.6784801 2.3625407 4
1.8371251 2.2175498 -1.7077903 3
5.2590261 6.3480449 -1.3543549 5
1.9188318 2.3161759 -1.6899446 5
5.8702488 7.0858374 -1.2931966 4
2.0221992 2.4409482 -1.685403 6
6.6938109 8.0799389 -1.227016 11
2.1218624 2.5612495 -1.6706241 5
7.4979386 9.0505829 -1.0964966 73
2.2303936 2.692255 -1.6548512 6
8.0454645 9.7114878 -0.88186133 14
2.3452148 2.830853 -1.6367083 7
2.4818442 2.9957747 -1.6249431 7
9.0961571 10.979754 -0.3310324 49
2.6313913 3.1762896 -1.6106364 9
9.3793116 11.321543 0 46
2.7924139 3.3706563 -1.5931298 7
2.9711854 3.586447 -1.5736952 8
11.05152 13.340026 0.80784988 21
3.1777689 3.835809 -1.5543106 6
11.087493 13.383448 1.2152973 4
3.4280565 4.1379251 -1.5408128 7
3.6968145 4.4623365 -1.5169761 7
10.727586 12.949013 1.9664314 45
3.9841261 4.8091435 -1.4797295 6
10.809294 13.04764 2.3812518 16
4.3481755 5.248579 -1.4487288 9
8.8800373 10.718882 2.2868721 24
4.7458687 5.7286248 -1.4016014 6
7.9570103 9.6047173 2.3499506 8
1.8418802 2.2091246 -1.70575 3
5.2688346 6.3193641 -1.351761 5
1.9249831 2.3087969 -1.6889651 4
5.8747268 7.0460625 -1.2892997 4
2.0219424 2.4250884 -1.6788305 6
6.6975393 8.0329313 -1.2230669 12
2.1230323 2.5463343 -1.6652379 5
7.5658689 9.0743942 -1.1022558 61
2.2353685 2.6810687 -1.6522841 6
8.0516624 9.6570473 -0.87921065 12
2.3587775 2.8290837 -1.6399622 7
2.4876988 2.9837098 -1.6226306 7
9.6069221 11.522404 -0.3483012 25
2.6353927 3.160852 -1.606999 9
9.4404507 11.322741 0 23
2.8017869 3.3604228 -1.5924457 7
9.3367548 11.198369 0.33850625 38
2.9824388 3.5770941 -1.5736952 8
11.10745 13.322115 0.80887467 19
3.1873596 3.8228731 -1.5531191 6
3.436116 4.1212277 -1.5386078 7
11.066343 13.272812 1.6122326 38
3.7033823 4.441783 -1.5139371 7
11.06207 13.267686 2.020093 7
3.9954774 4.7921181 -1.4783461 6
4.3558755 5.2243738 -1.4458181 9
8.9389477 10.721244 2.2933571 28
4.7537751 5.7016091 -1.398639 6
11.458397 13.743036 3.3712494 14
1.8425152 2.197382 -1.700649 3
5.272512 6.287993 -1.3481942 5
1.9303021 2.3020766 -1.6879853 5
5.8816533 7.0144544 -1.2865162 4
2.0309753 2.4221394 -1.6807083 6
6.7059035 7.9974546 -1.2205116 11
2.1324308 2.5431352 -1.6670333 6
7.6039734 9.0684919 -1.1041137 48
2.2416847 2.6734312 -1.6514285 6
8.0798788 9.6360559 -0.87935013 11
2.3596246 2.8140862 -1.6350813 7
2.499578 2.9809945 -1.6249431 9
9.1958399 10.96695 -0.33228576 40
2.6418145 3.1506257 -1.605544 9
9.4052095 11.216643 0 28
2.8111596 3.3525863 -1.5924457 7
9.3410101 11.14008 0.33753142 46
2.982676 3.5571368 -1.5685731 8
11.22291 13.384432 0.81455785 19
3.1918886 3.8066435 -1.5501404 6
11.189792 13.344935 1.2178085 7
3.4439046 4.1071973 -1.5369539 7
12.729586 15.181293 1.8483639 35
3.7132847 4.4284601 -1.5129242 7
4.0000901 4.770504 -1.4751183 6
11.665322 13.912053 2.5516 49
4.3641615 5.2046952 -1.4437389 9
8.9739218 10.702291 2.2946539 16
4.7595754 5.6762648 -1.3956766 6
9.0215988 10.759151 2.6454535 16
1.8523542 2.1958504 -1.7037096 3
5.2796917 6.2587457 -1.3452761 5
1.9393722 2.2990048 -1.6899446 5
5.8896685 6.9818344 -1.2837328 6
2.0347369 2.4120536 -1.6778915 6
6.7193551 7.9653764 -1.2186532 11
2.1342049 2.5299668 -1.6625448 6
7.6411176 9.0580683 -1.1055999 48
2.2484412 2.6653869 -1.6505729 6
8.1007137 9.602891 -0.87851304 11
2.3679633 2.8070729 -1.6350813 7
2.5012715 2.9651015 -1.6203181 7
9.6486273 11.437846 -0.3474192 42
2.6523519 3.1441977 -1.6062716 9
9.4616594 11.216208 0 28
2.8186705 3.3413582 -1.5910778 7
9.1600084 10.858619 0.32982543 33
2.9944389 3.5497205 -1.5692135 8
11.154364 13.222802 0.80673188 16
3.1994755 3.7927785 -1.5483531 8
3.4523561 4.0925531 -1.5353001 7
3.7226646 4.4129868 -1.5114046 7
4.0079522 4.7511778 -1.4728128 6
8.8396111 10.478807 1.9267126 25
4.3707547 5.1812572 -1.4408281 9
9.0030899 10.672602 2.2940054 5
4.7751279 5.6606164 -1.3953062 6
9.2473745 10.962187 2.7021098 7
1.8547581 2.1870577 -1.700649 3
5.2883992 6.2358723 -1.3433306 5
1.940873 2.2886009 -1.686026 5
5.8976769 6.9543085 -1.2815059 5
2.0421863 2.4080656 -1.6788305 6
6.7286205 7.9341245 -1.2165625 11
2.1431324 2.5270972 -1.6643403 6
7.6622276 9.034997 -1.1052283 44
2.2472262 2.6498408 -1.6445832 6
8.1155014 9.569479 -0.87739694 11
2.3753035 2.8008645 -1.6350813 7
9.3708506 11.049738 -0.67564607 15
2.5137999 2.9641736 -1.6234016 9
9.5220556 11.228033 -0.34180218 82
2.6569588 3.1329811 -1.6040891 9
2.8237612 3.329668 -1.5890256 7
9.2168531 10.86815 0.3308467 13
3.0012698 3.5389791 -1.567933 8
11.178602 13.181367 0.80598646 21
3.210628 3.785846 -1.5489488 6
3.4580841 4.0776362 -1.5330951 7
3.7241929 4.3914213 -1.5073526 7
4.0191174 4.7391849 -1.4723516 6
11.194571 13.200196 2.4324677 14
4.3741808 5.1578617 -1.4375015 9
4.7784886 5.6346054 -1.3919735 6
9.1006126 10.731084 2.6510079 13
1.8605038 2.1799111 -1.6996289 4
5.2925911 6.2012119 -1.3394397 5
1.9469218 2.2811654 -1.6850462 4
5.9027834 6.9161606 -1.2778875 6
2.049742 2.4016373 -1.6788305 6
6.73804 7.8948126 -1.2137749 10
2.1487412 2.5176325 -1.6625448 6
7.7022109 9.0245104 -1.1069003 36
2.2555406 2.6427672 -1.6445832 6
8.0367298 9.4164591 -0.86567783 15
2.3793473 2.7878287 -1.6318275 7
9.3847694 10.995927 -0.67415541 17
2.5135159 2.9450309 -1.6172347 7
9.6741076 11.334937 -0.34598014 41
2.6667891 3.1246176 -1.6040891 9
2.8268883 3.3122025 -1.5849214 7
10.604783 12.42539 0.37926441 15
3.0074539 3.523767 -1.5653721 8
11.181053 13.100593 0.80319148 21
3.2187884 3.771383 -1.5471615 6
12.29147 14.401643 1.3239779 72
3.464638 4.0594397 -1.5303386 7
12.423338 14.55615 1.7853832 21
3.7404838 4.3826418 -1.5083656 7
10.904663 12.776752 1.9643407 5
4.0264068 4.7176518 -1.4695848 6
12.81615 15.016399 2.7745552 39
4.3802042 5.1321883 -1.434175 9
4.7948928 5.6180696 -1.3916032 6
11.32503 13.269288 3.2868202 2
1.8665836 2.1747074 -1.6996289 4
5.3060308 6.1819167 -1.3384671 5
1.9498774 2.2717509 -1.6821073 5
5.9078836 6.8831201 -1.2748258 5
2.0575902 2.3972445 -1.6797693 6
6.748415 7.8624005 -1.2116841 11
2.154599 2.5102665 -1.6616471 6
7.7260838 9.0014572 -1.1067146 29
2.2652664 2.6392024 -1.6462946 6
8.1331625 9.4757338 -0.87321156 11
2.3883128 2.7825606 -1.6326411 7
9.425848 10.981807 -0.67490077 22
2.5205278 2.9366007 -1.6164639 7
9.6744671 11.271466 -0.34486601 33
2.6718636 3.1129179 -1.6019068 9
9.4504194 11.010435 0 6
2.8349023 3.30287 -1.5842373 7
10.747526 12.521661 0.38311741 14
3.0172818 3.5153556 -1.5653721 8
11.212386 13.063256 0.80281889 14
3.2255764 3.7580342 -1.5453743 6
12.587625 14.66551 1.3514619 50
3.4747078 4.0482907 -1.5297874 7
12.737597 14.840239 1.8245835 68
3.742626 4.360435 -1.5043136 7
4.0306921 4.6960535 -1.466357 6
12.473632 14.532701 2.691608 27
4.390696 5.1154842 -1.4329275 9
11.848592 13.804482 2.9888542 7
4.8003211 5.5927277 -1.3886409 6
1.8674072 2.1626489 -1.694528 4
5.3127427 6.1527004 -1.3355489 5
1.9611682 2.2712336 -1.686026 5
5.9166331 6.852067 -1.2723205 5
2.0623868 2.3884552 -1.6778915 6
6.7574353 7.8258023 -1.2091289 10
2.1597023 2.5011566 -1.6598517 6
7.737143 8.9604044 -1.1044852 23
2.2695436 2.6283641 -1.6437275 6
8.0843134 9.362463 -0.86498028 16
2.394171 2.7726953 -1.631014 7
9.4375019 10.929594 -0.67341006 22
2.5352612 2.9360921 -1.6203181 9
9.7130976 11.248762 -0.34505171 40
2.678654 3.1021557 -1.6004517 9
9.4307661 10.921793 0 21
2.8422337 3.2915978 -1.5828692 7
10.691856 12.382265 0.37982148 19
3.0227468 3.5006504 -1.5628111 8
11.247184 13.025392 0.80253935 9
3.2304752 3.7412212 -1.5423956 6
12.406813 14.36836 1.3274657 78
3.4804232 4.0306869 -1.5270311 7
12.281819 14.223605 1.7532425 11
3.7492263 4.3419881 -1.5017811 7
12.047839 13.952632 2.1557572 16
4.0395217 4.6781802 -1.4645126 6
8.8458252 10.244372 1.902218 8
4.395628 5.0905871 -1.429601 9
4.810473 5.5710206 -1.3867893 9
1.8794559 2.1635923 -1.6996289 4
5.3270912 6.1324415 -1.3345761 5
1.9621805 2.2588234 -1.6811275 4
5.9200511 6.8150454 -1.268702 5
2.0648317 2.3769932 -1.6741357 6
6.7741098 7.7982211 -1.2079674 10
2.1647692 2.4920394 -1.6580564 6
7.7467165 8.9178667 -1.10207 22
2.2773316 2.621619 -1.6437275 6
8.1382227 9.3685608 -0.86777055 12
2.4023867 2.7655799 -1.631014 7
9.4345121 10.860824 -0.67089456 20
2.5318582 2.9146252 -1.6126096 7
9.847393 11.336124 -0.34862617 27
2.6829588 3.0885689 -1.5975418 9
9.4041071 10.825821 0 23
2.8507545 3.2817321 -1.5821853 7
10.651181 12.261429 0.37708259 12
3.0318763 3.490236 -1.5621709 8
11.275297 12.979898 0.80179399 11
3.2365522 3.7258549 -1.5400125 6
12.745084 14.671888 1.3589956 53
3.4898448 4.0174403 -1.5259285 7
3.7620919 4.3308454 -1.5017811 7
12.933339 14.888604 2.3062885 27
4.0482788 4.6602983 -1.4626681 6
8.8930645 10.23752 1.9058366 25
4.4030137 5.0686622 -1.427106 9
4.8231134 5.5522728 -1.3856783 6
1.8847358 2.1567106 -1.6986086 4
5.336174 6.106205 -1.3323065 5
1.9654324 2.249052 -1.6781886 4
5.9298215 6.7855177 -1.2664753 5
2.0718758 2.3708558 -1.6741357 6
6.7815342 7.7601366 -1.2051797 8
2.1709783 2.4842591 -1.6571586 6
7.7521787 8.8708487 -1.0990975 26
2.2839112 2.6134884 -1.6428719 6
8.1108465 9.2812738 -0.861911 18
2.4057734 2.7529359 -1.6277602 7
9.4009676 10.757564 -0.66623622 23
2.5404959 2.9070992 -1.6126096 7
9.6362658 11.026817 -0.33999175 40
2.6896598 3.0777884 -1.5960867 9
9.3848619 10.739135 0 8
2.8580065 3.2704279 -1.5808171 7
3.0372326 3.475517 -1.5596099 8
11.299302 12.929835 0.80076915 21
3.2438247 3.7119215 -1.5382252 8
12.72686 14.563396 1.3524384 53
3.495425 3.9998286 -1.5231721 7
12.384354 14.171465 1.7558435 14
3.7723796 4.3167486 -1.5007681 7
4.0595284 4.6453338 -1.4617459 6
8.935133 10.224508 1.9083418 16
4.4167476 5.0541019 -1.4266902 9
12.069701 13.811406 3.0134964 15
4.8253412 5.521657 -1.381605 6
9.2277699 10.559374 2.6421206 7
1.8846985 2.1453075 -1.6935078 4
5.3378129 6.0759053 -1.3287398 5
1.9713135 2.2438991 -1.6781886 5
5.9384146 6.7595563 -1.2645268 6
2.0792408 2.3667502 -1.6750746 6
6.7900262 7.7289252 -1.203089 10
2.178654 2.4799099 -1.6580564 6
7.7556605 8.828084 -1.0963107 33
2.290745 2.6075006 -1.6428719 6
8.1575012 9.2854891 -0.86428267 17
2.4081485 2.741138 -1.6245062 7
9.3354778 10.626352 -0.65962142 23
2.5505338 2.9032118 -1.6141514 7
9.6189127 10.948979 -0.33836702 45
2.6964784 3.0693371 -1.5953593 9
9.2809429 10.564277 0 13
2.8640773 3.2601111 -1.5794489 7
10.809234 12.303894 0.38023925 7
3.0450702 3.466131 -1.5589697 8
11.317289 12.882201 0.79965115 16
3.2497511 3.6991141 -1.5364381 8
12.920323 14.706896 1.368901 52
3.5008085 3.9848869 -1.520967 7
3.7734518 4.2952304 -1.496716 7
12.948117 14.738534 2.2942088 52
4.0703907 4.6332288 -1.4612848 6
4.4170523 5.0278254 -1.422532 9
4.8294024 5.4971938 -1.3786427 6
11.508585 13.099948 3.2853391 12
1.8933344 2.1422834 -1.6955481 4
5.3479772 6.051167 -1.3267944 5
1.9802727 2.2406528 -1.6801479 5
5.9466429 6.7285495 -1.2620218 5
2.0839157 2.3579237 -1.6731968 6
6.7945142 7.6879048 -1.1998369 11
2.1812689 2.4680774 -1.6544654 6
7.7686348 8.7901096 -1.0944529 33
2.2900927 2.5912101 -1.6368823 6
8.1903028 9.2672215 -0.86484075 12
2.4174817 2.7353492 -1.6253197 7
9.3444777 10.573155 -0.65803754 37
2.554249 2.8900995 -1.611068 7
9.728157 11.007283 -0.34105945 47
2.7018731 3.0571344 -1.593177 9
2.8712497 3.2487819 -1.578081 7
3.0565965 3.4584994 -1.5596099 8
11.307837 12.79467 0.79629713 4
3.2581844 3.6865935 -1.5352465 8
12.332359 13.953905 1.3022139 20
3.5126176 3.9744813 -1.520967 7
12.765301 14.443772 1.798388 63
3.7823367 4.279665 -1.4951966 7
12.669499 14.335375 2.2372949 52
4.0725222 4.608006 -1.4571346 6
11.181105 12.651275 2.3729017 11
4.4280653 5.0102983 -1.4212844 9
9.302762 10.525955 2.3079479 48
4.8443918 5.4813662 -1.3782723 6
11.95349 13.525219 3.4008737 6
1.8973949 2.1340864 -1.6935078 4
5.3567243 6.0249515 -1.3245246 5
1.985752 2.2334657 -1.6791682 5
5.9520998 6.6945977 -1.25896 6
2.0885544 2.349092 -1.6713189 6
6.8054104 7.6543546 -1.197746 8
2.1921432 2.4656031 -1.6571586 6
7.7774739 8.7476788 -1.0920377 26
2.3037746 2.5911603 -1.6411606 6
8.2005243 9.2235022 -0.8630271 8
2.4292271 2.7322624 -1.6277602 7
9.4594307 10.639452 -0.66390705 19
2.5615845 2.8811305 -1.6102971 7
2.7121677 3.0504985 -1.5939045 9
10.6006 11.922977 0 19
2.8783765 3.2374411 -1.5767128 7
3.0567708 3.4380894 -1.5544882 8
3.2653003 3.6726317 -1.5334593 8
12.356463 13.897877 1.3004001 11
3.5167274 3.9554234 -1.5176593 7
12.505088 14.065042 1.7558435 77
3.7898729 4.2626424 -1.4931705 7
12.428189 13.97855 2.18735 19
4.0848804 4.594451 -1.4566736 6
4.4390087 4.9927549 -1.420037 9
9.2526436 10.406869 2.2878449 37
4.8475709 5.4522834 -1.3745692 6
11.990947 13.486763 3.4001331 8
1.904866 2.129729 -1.694528 4
5.3614221 5.9943199 -1.3212824 5
1.9912082 2.2262638 -1.6781886 4
5.9613767 6.6650972 -1.2567332 6
2.0955157 2.3428843 -1.6713189 6
6.8055801 7.6089563 -1.193797 9
2.1982582 2.4577551 -1.6562608 5
7.7755189 8.6933928 -1.0881362 20
2.3102481 2.5829654 -1.6403049 6
8.1972647 9.1649246 -0.85981828 11
2.4336698 2.7209563 -1.6253197 7
9.4709816 10.588999 -0.66250956 19
2.5725832 2.8762679 -1.6118388 6
9.7439795 10.894224 -0.33934185 36
2.7162397 3.0368826 -1.5909945 9
10.757266 12.027125 0 40
2.8842118 3.2246833 -1.5746607 7
11.086276 12.394973 0.3860884 4
3.0619066 3.4233544 -1.5519271 8
3.2710927 3.6572342 -1.5310763 6
3.5284491 3.9449706 -1.5176593 7
12.469771 13.941786 1.7450681 16
3.7999253 4.2484937 -1.4921575 7
12.419291 13.885345 2.1785226 23
4.0933061 4.5765071 -1.4548291 6
4.4472833 4.97227 -1.4179578 9
9.2795362 10.374954 2.2868721 17
4.8611078 5.4349456 -1.3738286 6
1.9062049 2.1192846 -1.6904472 4
5.3715434 5.9719863 -1.3196611 5
1.9962521 2.2193975 -1.6772089 5
5.9653983 6.6322236 -1.2536714 6
2.1032317 2.3383358 -1.6722579 6
6.8055491 7.5662885 -1.19008 9
2.2039187 2.4502776 -1.6553632 5
7.7797923 8.649435 -1.0853496 19
2.3174531 2.576503 -1.6403049 6
8.2335033 9.153862 -0.86093444 16
2.4375939 2.7100735 -1.6228793 7
9.5018539 10.563993 -0.66260272 22
2.5756695 2.8635836 -1.6087555 7
9.932148 11.042385 -0.34481961 31
2.7234647 3.0278995 -1.5902671 9
2.8906932 3.2138212 -1.5732927 7
3.0727227 3.4161985 -1.5525674 8
12.470515 13.864497 0.86961949 36
3.2787404 3.6452453 -1.5298848 6
12.426972 13.816087 1.2994236 5
3.5278821 3.9222364 -1.5126979 7
3.8053064 4.2306719 -1.4896251 7
12.06215 13.410483 2.1092968 29
4.1008658 4.5592699 -1.4529847 6
4.4533033 4.9511032 -1.4154629 9
9.2728415 10.309381 2.2781177 23
4.8710103 5.4155025 -1.3723474 9
12.667781 14.083814 3.5689921 23
1.9121153 2.1139538 -1.6904472 4
5.3749599 5.942328 -1.3164188 5
2.0036113 2.2151079 -1.6781886 5
5.9745951 6.6052594 -1.2517229 5
2.1038303 2.3259056 -1.6675632 6
6.8053303 7.523685 -1.1863633 9
2.2095532 2.4427886 -1.6544654 6
7.7838769 8.605525 -1.0825627 18
2.3210006 2.566 -1.6377379 6
8.2710772 9.1441526 -0.86219001 15
2.4402494 2.6978364 -1.6196253 7
9.5232744 10.528529 -0.66204375 21
2.5799417 2.8522742 -1.6064429 7
10.005865 11.06206 -0.3463051 42
2.7256606 3.0133748 -1.5866296 8
2.8983951 3.2043431 -1.5726086 7
11.136554 12.312102 0.3854385 32
3.0797081 3.4047949 -1.5512869 8
12.367124 13.672568 0.85974383 34
3.2837837 3.6304121 -1.5275018 8
3.5362413 3.9095187 -1.5115954 7
12.364435 13.669597 1.7196157 28
3.8106158 4.2128553 -1.4870925 7
11.833039 13.082107 2.0628364 24
4.1070538 4.5405846 -1.4506791 6
12.274691 13.570378 2.5716407 22
4.4579248 4.928493 -1.4125521 9
9.309536 10.292229 2.2800632 27
4.874248 5.388762 -1.3690147 9
12.630591 13.963847 3.5475144 12
1.9110656 2.100971 -1.6843261 4
5.3862195 5.9214559 -1.3151218 5
2.006269 2.2056348 -1.6752495 5
5.9770236 6.5709691 -1.2483828 5
2.1091285 2.3187156 -1.6666242 6
6.8102722 7.4870191 -1.1835757 8
2.2103529 2.4299986 -1.649977 6
7.7864366 8.5601864 -1.0795902 18
2.3220747 2.5528226 -1.6334596 6
8.3113461 9.1372566 -0.86372471 12
2.4514613 2.6950665 -1.6220658 7
9.558013 10.507807 -0.6624164 17
2.5829291 2.8395984 -1.6033596 7
10.134929 11.142052 -0.34969386 97
2.7315569 3.0029957 -1.5851747 8
2.898479 3.1865051 -1.5678203 7
11.182999 12.29427 0.38585627 22
3.0904782 3.3975832 -1.5519271 8
11.934746 13.120718 0.82713538 5
3.2913387 3.6184037 -1.5263102 6
12.775121 14.044602 1.3276052 33
3.5393822 3.8910956 -1.5082877 7
12.166727 13.375752 1.6869178 10
3.8210628 4.2007675 -1.486586 7
12.047297 13.244455 2.0937326 12
4.1210256 4.5305381 -1.4511402 6
4.466404 4.9102373 -1.4108888 9
9.3289433 10.255974 2.2777934 28
4.8826632 5.3678603 -1.3671632 6
13.459064 14.79651 3.7685859 18
1.9188187 2.0962253 -1.6853462 4
5.3954701 5.8943143 -1.312852 5
2.0131888 2.1993206 -1.6752495 6
5.9869409 6.5404701 -1.2461561 6
2.1175954 2.3133802 -1.6675632 6
6.8216906 7.4523973 -1.1814851 9
2.2215967 2.4269969 -1.65267 6
7.7890911 8.5092402 -1.076246 18
2.3300841 2.5455143 -1.6334596 6
8.35079 9.1228714 -0.86484075 15
2.4549823 2.6819603 -1.618812 7
9.5815372 10.467409 -0.6617642 16
2.5905917 2.8301077 -1.6025887 7
9.9241781 10.841728 -0.34124514 20
2.7447522 2.9985213 -1.5873572 9
10.518332 11.490815 0 45
2.9135523 3.1829281 -1.5705564 7
11.575282 12.645488 0.39801875 7
3.0947409 3.3808687 -1.548726 8
3.2988236 3.6038198 -1.524523 8
12.079615 13.196448 1.2510126 5
3.5515902 3.8799562 -1.5082877 7
12.361972 13.504911 1.708097 10
3.8290167 4.183033 -1.48456 7
12.216272 13.345741 2.1158013 6
4.1260414 4.5075192 -1.4479123 6
4.4725628 4.8860788 -1.4079781 9
9.5210257 10.401302 2.3167024 28
4.8902149 5.3423452 -1.364571 6
13.197608 14.417808 3.6826754 8
1.9269947 2.09339 -1.6873866 4
5.4012156 5.8676085 -1.3102582 5
2.0181415 2.1924074 -1.6742699 6
5.9971337 6.5149841 -1.244486 6
2.1252429 2.3087571 -1.6685021 6
6.8236384 7.4128575 -1.1782327 7
2.2223134 2.4142094 -1.6481816 6
7.796638 8.4698744 -1.0740166 18
2.3359587 2.537668 -1.632604 6
8.3951492 9.1200676 -0.86679393 15
2.4661741 2.6791275 -1.6212524 7
9.5917873 10.420034 -0.66045988 11
2.5984843 2.8228626 -1.6025887 7
10.291598 11.180275 -0.35280412 28
2.7531147 2.9908452 -1.5873572 9
10.498905 11.405482 0 26
2.9173374 3.1692486 -1.5678203 7
3.1003201 3.3680317 -1.5468053 8
10.624166 11.541559 0.73154616 10
3.3088741 3.5945942 -1.524523 6
3.5585043 3.8657799 -1.5066339 7
3.8301995 4.1609359 -1.480508 7
4.1346583 4.4916849 -1.4465289 6
4.4848647 4.8721313 -1.4075623 9
9.53934 10.363059 2.3141086 28
4.8971272 5.3199925 -1.3623492 9
12.786573 13.89069 3.5571425 8
1.9347305 2.0885885 -1.6884068 4
5.410233 5.8404775 -1.3079885 5
2.0214641 2.1822195 -1.6713308 7
6.0014191 6.4786773 -1.2411457 6
2.1264851 2.2955921 -1.6638073 6
6.8266425 7.3695259 -1.1747482 7
2.2335298 2.4111495 -1.6508747 6
7.8069673 8.4278107 -1.0717872 18
2.3476045 2.5342958 -1.6351709 6
8.4251137 9.0951138 -0.86693347 12
2.4671283 2.6633246 -1.6163715 7
9.5973196 10.360539 -0.65859652 11
2.6035771 2.8106246 -1.6002762 7
10.125571 10.930799 -0.34593371 10
2.7549002 2.9739816 -1.5829923 9
10.44362 11.27414 0 23
2.9260018 3.15869 -1.5671363 7
11.363413 12.267079 0.3882238 16
3.107022 3.3541057 -1.5448846 8
13.185624 14.2342 0.9048366 27
3.317555 3.5813811 -1.5233315 8
3.5667114 3.8503513 -1.50498 7
12.542031 13.539427 1.7218451 10
3.848511 4.1545606 -1.4825339 7
11.864616 12.808141 2.041697 6
4.1434584 4.4729633 -1.4446845 6
4.4974885 4.8551478 -1.4067307 9
9.5812359 10.343176 2.3163781 22
4.9151506 5.3060241 -1.3627194 9
12.298561 13.276595 3.4097612 8
1.9382111 2.0806596 -1.6863666 4
5.4157615 5.8137918 -1.3053944 5
2.0239854 2.1727378 -1.6683917 7
6.0127397 6.4546447 -1.2397541 5
2.1316843 2.288352 -1.6628684 6
6.8323035 7.3344426 -1.1721928 9
2.2329459 2.3970559 -1.6454884 6
7.8114719 8.3855743 -1.0691862 20
2.3497446 2.5224385 -1.6317483 6
8.4627218 9.0846872 -0.8681891 17
2.4733114 2.655087 -1.615558 7
9.5989828 10.304458 -0.65673321 11
2.61519 2.8073931 -1.6025887 7
2.7644651 2.967639 -1.5837197 9
11.08034 11.894688 0 46
2.9296882 3.1450052 -1.5644002 7
11.22727 12.052416 0.38242108 21
3.1176689 3.3468013 -1.5455247 8
3.319736 3.5637195 -1.519757 8
3.5695887 3.8319349 -1.5016725 7
3.8508675 4.1338863 -1.4789884 7
4.1493015 4.4542537 -1.442379 6
11.346448 12.180353 2.3395002 17
4.5003638 4.8311172 -1.4034041 9
9.6047039 10.3106 2.3150811 28
4.9232521 5.2850857 -1.360868 9
12.464201 13.380255 3.4453106 29
1.9479042 2.0786655 -1.6894271 4
5.4248896 5.7890582 -1.303449 5
2.0292304 2.165451 -1.667412 7
6.0169663 6.4208808 -1.2366923 5
2.1384642 2.2820175 -1.6628684 6
6.8418093 7.3010945 -1.1701022 8
2.2400479 2.3904204 -1.6454884 6
7.8131685 8.3376608 -1.066028 18
2.3559818 2.514137 -1.6308926 6
8.5332918 9.1061249 -0.87265348 12
2.4836764 2.6504037 -1.6171849 7
9.602191 10.246778 -0.65486985 13
2.6159365 2.7915421 -1.5979637 7
10.437191 11.137832 -0.35438246 23
2.7694359 2.9553461 -1.5815372 9
2.9402912 3.1376705 -1.5650842 7
11.163173 11.912547 0.37903228 3
3.1211069 3.3306243 -1.5423236 8
3.3289893 3.5524619 -1.5191613 6
12.9616 13.831702 1.3255125 12
3.5756831 3.815716 -1.4994673 7
12.467299 13.304219 1.7010372 10
3.8551772 4.1139722 -1.4759494 7
12.045496 12.8541 2.0600488 10
4.1585069 4.437664 -1.4409956 6
11.386597 12.15097 2.3403349 35
4.5079885 4.8106065 -1.4013249 9
9.6258059 10.271978 2.3128114 20
4.9348788 5.2661538 -1.3597571 9
12.854608 13.717527 3.5419598 14
1.9427232 2.06229 -1.6802454 4
5.4319067 5.7662187 -1.3015037 5
2.0384789 2.163939 -1.6703511 5
6.018816 6.3892498 -1.2336304 6
2.1480632 2.280268 -1.6656852 6
6.8404675 7.2614708 -1.1666178 8
2.2462978 2.3845484 -1.6454884 6
7.8185825 8.2997847 -1.0637985 18
2.3637948 2.5092769 -1.6317483 6
8.5598373 9.0866604 -0.87293255 15
2.485595 2.6385734 -1.6139311 7
2.6245005 2.7860279 -1.5987345 7
10.567767 11.21817 -0.35781762 46
2.7707758 2.9413059 -1.5778999 8
11.039627 11.719071 0 39
2.9472063 3.1285949 -1.5644002 7
11.506911 12.215115 0.38961643 6
3.1272163 3.319684 -1.5410432 8
13.396189 14.22067 0.91107875 16
3.3343501 3.5395658 -1.517374 8
3.5790684 3.7993457 -1.4967109 7
3.8619535 4.0996413 -1.47443 7
4.1634369 4.4196796 -1.4386899 6
11.403428 12.105264 2.3372731 17
4.5192251 4.7973652 -1.4009091 9
9.6025925 10.193594 2.3008144 27
4.9392138 5.2432027 -1.357165 9
1.9579387 2.0668478 -1.6884068 4
5.4398437 5.7424316 -1.2995582 5
2.0433145 2.1569726 -1.6693715 5
6.0270996 6.3623538 -1.2316821 6
2.1447067 2.2640047 -1.6581737 6
6.8511548 7.2322464 -1.1649916 8
2.2517188 2.3769693 -1.6445909 6
7.8211861 8.2562351 -1.0610118 19
2.3670628 2.4987292 -1.6291813 6
8.6167355 9.096036 -0.87614131 18
2.4929533 2.6316223 -1.6139311 7
2.6284626 2.7746692 -1.596422 7
10.717307 11.313451 -0.36180988 59
