# .PCD v0.7 - Point Cloud Data file format
VERSION 0.7
FIELDS x y z intensity
SIZE 4 4 4 4
TYPE F F F F
COUNT 1 1 1 1
WIDTH 1453
HEIGHT 1
VIEWPOINT 0 0 0 1 0 0 0
POINTS 1453
DATA ascii
7.9971604 2.7880371 -0.7901389 18
2.9888833 1.0420095 -1.4982649 7
8.9618216 3.1243453 -0.66366315 4
3.1313317 1.0916711 -1.476454 6
10.134132 3.5330462 -0.50049239 9
3.2935438 1.1482229 -1.4568988 11
11.734009 4.0908089 -0.2885102 6
3.4585104 1.205735 -1.4302219 11
13.825878 4.8200936 0 10
3.6486416 1.27202 -1.4063867 7
17.382948 6.0601892 0.42740363 8
3.8430841 1.3398082 -1.3752224 7
23.203617 8.0894394 1.1459523 9
4.0797219 1.4223068 -1.3481811 11
29.628454 10.32932 2.1941202 12
4.3332763 1.5107031 -1.3158928 17
31.418894 10.953519 3.1042631 21
4.5966268 1.6025146 -1.2743613 7
42.898193 14.955528 5.3127332 42
4.8954806 1.7067035 -1.2284198 12
62.008369 21.617878 9.229126 26
5.2517443 1.8309071 -1.182186 8
64.595879 22.519958 11.239168 22
5.6455574 1.9682015 -1.1264654 9
67.071152 23.382908 13.382795 34
2.5086594 0.86723119 -1.5741462 4
6.1216984 2.116241 -1.0641592 6
2.6119783 0.90294802 -1.5527897 4
6.6319447 2.2926307 -0.98618066 5
2.7471459 0.94967479 -1.5455004 6
7.2619619 2.5104246 -0.89854187 7
2.8681445 0.99150342 -1.5242987 8
8.0006685 2.7657917 -0.78976732 16
2.9898925 1.0335912 -1.4974093 7
8.9605408 3.0976148 -0.66296554 4
3.1341786 1.0834701 -1.476454 6
10.124466 3.4999778 -0.49956074 9
3.2965386 1.1395971 -1.4568988 9
11.727671 4.0541978 -0.2880924 6
3.4598942 1.1960684 -1.4294944 11
13.810095 4.7740817 0 10
3.6430779 1.259394 -1.4029666 7
17.347731 5.997025 0.42615023 8
3.8447874 1.3291241 -1.3745823 7
23.137857 7.9986434 1.1416668 9
4.0798221 1.4103744 -1.3469898 11
29.529055 10.208049 2.1847727 12
4.3244967 1.4949572 -1.3120339 15
31.692131 10.955813 3.1284149 21
4.5971489 1.5892117 -1.2733483 7
42.841446 14.810077 5.3008857 42
4.8962536 1.6926106 -1.2274977 13
61.922489 21.4063 9.2079716 52
5.2491236 1.8145962 -1.1805227 8
65.307442 22.57646 11.352652 22
5.6488333 1.9527737 -1.1260951 9
65.976738 22.807833 13.152465 32
2.5063391 0.85811156 -1.5710856 4
6.1223497 2.0961485 -1.0631864 6
2.6162958 0.89575821 -1.5537695 6
6.6312237 2.270375 -0.98506731 5
2.7432692 0.93923086 -1.5417447 6
7.2637415 2.4869342 -0.89784497 7
2.871074 0.98298824 -1.5242987 8
7.9975362 2.7381682 -0.78865266 16
2.9963667 1.0258856 -1.4991206 7
8.9602556 3.0677807 -0.66226798 5
3.1391087 1.074757 -1.4772676 6
10.119685 3.4647422 -0.49881536 9
3.3016515 1.1304078 -1.4576696 9
11.722625 4.0135508 -0.28767464 6
3.4669533 1.1870033 -1.4309493 9
13.809063 4.7278986 0 10
3.6450212 1.2479695 -1.4022826 7
17.327616 5.9325681 0.4252218 8
3.8487146 1.3177093 -1.3745823 7
23.070765 7.8988876 1.1371948 9
4.0767646 1.3957883 -1.3446068 11
29.500702 10.100347 2.1804478 18
4.3380084 1.4852321 -1.3147904 14
32.037243 10.968798 3.159255 21
4.5945225 1.5730565 -1.2713224 10
43.069386 14.745944 5.3236518 56
4.9012547 1.6780742 -1.2274977 12
61.893921 21.191023 9.1943321 52
5.252634 1.7983783 -1.1801069 8
65.245308 22.338459 11.330279 44
5.6508837 1.9347297 -1.1253544 9
66.047844 22.613228 13.153205 32
2.5121324 0.8517766 -1.5731258 3
6.1210656 2.0754402 -1.0618894 6
2.618942 0.88799196 -1.5537695 6
6.6341791 2.249419 -0.9845106 4
2.7393541 0.92881954 -1.537989 6
7.2673249 2.4640968 -0.89738035 7
2.8688998 0.97274399 -1.5216055 6
8.001852 2.7131493 -0.78828102 16
3.0011091 1.0175716 -1.4999763 6
8.9636488 3.0392611 -0.66184944 5
3.1353621 1.063092 -1.4740136 6
10.114783 3.4295707 -0.49807003 9
3.2892611 1.1152738 -1.450732 8
11.715544 3.9723327 -0.2872104 6
3.4757528 1.1785066 -1.4331318 9
13.788936 4.6753473 0 10
3.6451476 1.2359426 -1.4009145 7
17.290226 5.8625131 0.42387557 8
3.8490186 1.3050681 -1.373302 7
23.018415 7.8047428 1.133468 9
4.0845037 1.3849128 -1.3457981 9
29.483301 9.9967604 2.17696 24
4.3423958 1.4723551 -1.3147904 8
32.309151 10.954906 3.1828494 21
4.5991693 1.5594181 -1.2713224 15
43.096008 14.612355 5.3215609 42
4.9043679 1.6629003 -1.2270365 10
62.307266 21.126225 9.2463837 26
5.2597995 1.7834147 -1.1805227 8
65.395409 22.173304 11.344871 22
5.6510148 1.9160624 -1.1242436 9
66.26355 22.467661 13.18283 33
2.509609 0.84311497 -1.5700653 4
6.1230955 2.0570829 -1.061241 6
2.613147 0.87789905 -1.548871 5
6.6366792 2.2296238 -0.98395389 4
2.7486329 0.9234162 -1.5417447 7
7.2666454 2.4412639 -0.89645118 7
2.8665223 0.96302176 -1.5189124 6
8.0037336 2.6888921 -0.78772366 18
3.0022254 1.0086118 -1.4991206 6
8.9531879 3.0078657 -0.66045427 6
3.1435142 1.0560784 -1.476454 6
10.118639 3.3994048 -0.49779058 9
3.2976108 1.1078479 -1.4530445 8
11.709532 3.9338725 -0.28679261 6
3.4666679 1.1646434 -1.4280394 8
13.788666 4.6323671 0 10
3.6503658 1.2263577 -1.4015985 7
17.251564 5.7957444 0.42252934 8
3.8562393 1.2955219 -1.3745823 7
22.954899 7.7118068 1.1292756 9
4.0774961 1.369854 -1.3422236 8
29.441122 9.8908844 2.171798 18
4.3355551 1.4565502 -1.3114827 7
32.70771 10.98831 3.2190776 30
4.6108418 1.5490341 -1.2733483 21
43.040607 14.459696 5.3097134 42
4.9108372 1.649819 -1.2274977 6
62.737736 21.077038 9.3014956 27
5.2591953 1.7668514 -1.1792753 10
65.743301 22.086773 11.39448 44
5.6619325 1.9021529 -1.1253544 9
66.035378 22.184898 13.125062 32
2.5122457 0.835226 -1.5700653 4
6.1351471 2.0397027 -1.0622138 6
2.6258199 0.87298512 -1.5547491 4
6.6361346 2.2062619 -0.98284054 4
2.7531965 0.91533297 -1.5426837 6
7.2723947 2.4177942 -0.89621884 7
2.8678381 0.95344698 -1.5180148 6
8.0008049 2.6599631 -0.78660899 17
3.0002332 0.99746329 -1.4965537 7
8.9644871 2.9803507 -0.66059381 5
3.1416154 1.0444674 -1.4740136 6
10.110312 3.3612938 -0.49685887 9
3.2975729 1.0963174 -1.4515029 6
11.71045 3.8932788 -0.28651407 7
3.4756136 1.1555092 -1.4302219 9
13.77848 4.5808201 0 8
3.654201 1.2148827 -1.4015985 7
17.214664 5.7232203 0.42118311 8
3.8530991 1.2810087 -1.3720214 7
22.882332 7.6075034 1.124524 8
4.0872149 1.3588432 -1.3440109 9
29.392538 9.7718992 2.1659384 18
4.3309884 1.4398887 -1.3087262 7
32.92915 10.947689 3.2374699 37
4.6120143 1.5333191 -1.2723353 17
43.11599 14.334424 5.3134303 42
4.9141498 1.6337676 -1.2270365 6
63.499035 21.111012 9.4044838 27
5.2610078 1.7490847 -1.1784436 16
66.780586 22.202002 11.562112 22
5.6566911 1.8806343 -1.1231327 9
65.931313 21.919651 13.090624 32
2.512934 0.82766944 -1.5690452 4
6.1314459 2.0194762 -1.0605925 6
2.6183105 0.86237663 -1.548871 5
6.640388 2.1871033 -0.98256218 4
2.7490323 0.90543163 -1.5389279 7
7.2715702 2.3949919 -0.8952896 7
2.875582 0.9471125 -1.5207078 8
8.0082016 2.6376114 -0.78660899 15
3.0047238 0.98964715 -1.4974093 7
8.9614048 2.9515619 -0.65975672 5
3.1514614 1.0379772 -1.4772676 6
10.104478 3.3280489 -0.49611354 9
3.2988682 1.0865277 -1.450732 8
11.698486 3.8530576 -0.28595701 6
3.477057 1.1452166 -1.4294944 9
13.77602 4.537322 0 8
3.6575792 1.204674 -1.4015985 7
17.190697 5.661993 0.42020825 8
3.8602607 1.27143 -1.373302 7
22.837069 7.5217028 1.1212633 8
4.0909929 1.3474249 -1.3440109 9
26.988438 8.8890133 1.9869434 15
4.3349924 1.4277894 -1.3087262 7
33.248974 10.951008 3.2658949 30
4.6126022 1.5192242 -1.2713224 19
43.00679 14.164879 5.2950783 42
4.9186926 1.6200391 -1.2270365 6
5.2565808 1.7313273 -1.1763645 14
66.051285 21.7549 11.425282 44
5.6563196 1.8629867 -1.1220218 9
2.5219209 0.82234228 -1.5731258 4
6.1280298 1.9982141 -1.0589713 6
2.6241736 0.85568458 -1.5508304 6
6.6411996 2.1655474 -0.98172712 4
2.7584226 0.8994602 -1.5426837 6
7.2748685 2.3721726 -0.89482504 7
2.883477 0.94023758 -1.5234009 8
8.006526 2.61075 -0.78568006 15
3.0007725 0.97848511 -1.4939866 7
8.9625368 2.9224834 -0.6591987 5
3.1562645 1.0291876 -1.478081 6
10.099113 3.2930961 -0.49536821 9
3.3020778 1.0767341 -1.450732 8
11.69276 3.8127487 -0.28553924 7
3.4786689 1.1343164 -1.428767 9
13.778014 4.4927039 0 10
3.6557775 1.1920676 -1.3995464 7
17.154196 5.5936017 0.41890845 8
3.8586121 1.2582074 -1.3713812 7
22.787111 7.4303694 1.1177229 8
4.0877128 1.3329122 -1.341628 9
27.124714 8.8447647 1.9950352 21
4.3355546 1.4137278 -1.3076237 7
33.593712 10.954162 3.2965493 23
4.6170902 1.5055304 -1.2713224 19
43.27338 14.110485 5.3227224 42
4.9234781 1.6054366 -1.2270365 6
63.935905 20.848076 9.4512463 28
5.2672749 1.717541 -1.1776118 14
67.070595 21.870226 11.590321 22
5.6562171 1.8443664 -1.1209109 9
67.306549 21.947166 13.338357 33
2.5207913 0.81467944 -1.5710856 4
6.1257281 1.9797374 -1.0576743 6
2.6230862 0.84773952 -1.548871 5
6.6487303 2.1487634 -0.98200548 5
2.7641284 0.89332211 -1.5445616 6
7.2753825 2.3512874 -0.89412814 7
2.8859284 0.93268591 -1.5234009 8
8.0057545 2.5873318 -0.78493696 15
3.0050437 0.97118211 -1.4948423 7
8.9568672 2.8947163 -0.65822214 5
3.1467779 1.0169883 -1.4723867 6
10.096294 3.2629609 -0.49480921 9
3.3136654 1.0709237 -1.4545863 9
11.68748 3.7772067 -0.28516784 7
3.4763081 1.1234872 -1.4265845 8
13.764988 4.4486241 0 8
3.6570973 1.1819154 -1.3988624 7
17.113607 5.5308442 0.41756225 8
3.8564837 1.2463539 -1.3694605 7
22.749454 7.3522601 1.1149279 8
4.0875549 1.3210324 -1.3404363 9
27.274969 8.8148346 2.0043826 10
4.3355818 1.4011908 -1.3065212 7
33.904606 10.957426 3.3242311 23
4.6136513 1.4910582 -1.2692962 17
43.089016 13.92568 5.2955432 56
4.9239607 1.5913453 -1.2261143 6
64.708282 20.912682 9.5572958 28
5.2736144 1.7043478 -1.1780277 20
67.345451 21.764975 11.627934 22
5.6572852 1.8283442 -1.1201702 9
67.320763 21.756994 13.329841 33
2.5214181 0.80711287 -1.5700653 4
6.1349916 1.9638277 -1.0583228 6
2.6254432 0.8404116 -1.548871 5
6.6452742 2.1271706 -0.98061377 4
2.7598848 0.88344669 -1.5408057 6
7.2762442 2.3291459 -0.89343125 7
2.8851173 0.92353398 -1.5216055 8
8.0053616 2.5625384 -0.78419381 15
3.0077441 0.96278715 -1.4948423 7
8.9573154 2.8672612 -0.65766406 5
3.1583061 1.0109825 -1.476454 6
10.097754 3.2323191 -0.49443653 9
3.306097 1.0582907 -1.4499612 8
11.675131 3.7372417 -0.28461081 7
3.4829805 1.1149117 -1.4280394 9
13.756404 4.4034629 0 10
3.6639636 1.1728448 -1.4002305 7
17.079473 5.4671865 0.41635528 7
3.8707767 1.2390462 -1.373302 7
22.707106 7.2686071 1.1118534 8
4.0930462 1.3101953 -1.3410323 9
27.552198 8.8195343 2.0229378 16
4.3394775 1.3890787 -1.3065212 7
34.198692 10.947096 3.3500552 24
4.6159544 1.4775797 -1.2687898 15
43.076653 13.788955 5.2892709 42
4.9283853 1.5775896 -1.2261143 7
63.734642 20.401634 9.4050407 55
5.2802162 1.6902117 -1.1784436 20
67.616486 21.644224 11.664248 22
5.6623688 1.8125398 -1.1201702 9
67.399971 21.574915 13.333543 33
2.5255814 0.79970622 -1.5710856 4
6.1317239 1.9415638 -1.0567015 6
2.6264086 0.83163238 -1.5478914 5
6.6500359 2.1056833 -0.98033535 4
2.7559128 0.87263888 -1.53705 6
7.2740569 2.3032751 -0.89226967 8
2.886301 0.91392541 -1.5207078 8
8.0019827 2.5337672 -0.78307909 15
3.0107541 0.95333248 -1.4948423 6
8.9643774 2.8385022 -0.65752453 5
3.1597252 1.0005031 -1.4756407 6
10.096433 3.196959 -0.49387753 9
3.3076465 1.0473412 -1.4491904 8
11.667753 3.6945059 -0.28414658 7
3.4793618 1.1017135 -1.4251295 11
13.751105 4.3541832 0 8
3.6676302 1.1613274 -1.4002305 7
17.067972 5.4044442 0.41565895 7
3.8692312 1.2251627 -1.3713812 7
22.676498 7.1803417 1.1092446 8
4.0971422 1.2973291 -1.3410323 9
27.81753 8.8082104 2.0403769 5
4.3438206 1.3754379 -1.3065212 7
34.587929 10.952005 3.3847969 16
4.6261072 1.4648218 -1.2703092 8
42.960682 13.603175 5.2697577 13
4.9258962 1.5597477 -1.2242699 12
64.111862 20.300535 9.4512463 56
5.276176 1.6706611 -1.1763645 18
66.416039 21.030136 11.44571 22
5.6624146 1.7929608 -1.1190593 9
67.76535 21.457384 13.392422 34
2.5245218 0.79162133 -1.5690452 4
6.1295891 1.9220723 -1.0554047 6
2.6337118 0.82586032 -1.5508304 6
6.6540003 2.0865133 -0.98005706 5
2.7633936 0.86652505 -1.5398668 7
7.2861466 2.2847373 -0.89296663 8
2.890547 0.90639687 -1.5216055 8
7.9995251 2.5084333 -0.78215015 15
3.0099547 0.94383991 -1.493131 7
8.9627495 2.8104744 -0.65682697 4
3.1607633 0.99112934 -1.4748272 6
10.093883 3.1651669 -0.49331853 9
3.3087971 1.0375488 -1.4484195 8
11.666577 3.6583209 -0.28386804 7
3.4895353 1.0942233 -1.4280394 9
13.738401 4.3079886 0 8
3.6690652 1.150519 -1.3995464 7
17.037209 5.3424048 0.41454482 7
3.8708291 1.2137867 -1.3707409 7
22.622118 7.0936804 1.1056112 8
4.095284 1.2841697 -1.339245 8
28.352217 8.8904839 2.0777664 5
4.3439751 1.3621525 -1.3054185 7
34.893894 10.941775 3.4117353 16
4.6264873 1.4507405 -1.2692962 7
42.956802 13.470084 5.264647 41
4.9265184 1.5448221 -1.2233475 13
63.865929 20.026617 9.4067106 83
5.2808204 1.6559216 -1.1763645 8
66.482033 20.846956 11.447006 22
5.6598978 1.7747899 -1.1175781 9
67.969406 21.313356 13.420935 34
2.5267229 0.78456765 -1.5690452 4
6.1292791 1.9031903 -1.0544319 6
2.6343427 0.81798452 -1.5498507 7
6.6560183 2.066747 -0.97950035 5
2.7641165 0.8582803 -1.5389279 7
7.2773223 2.2596669 -0.89110821 7
2.8896534 0.89726055 -1.5198101 8
8.0103035 2.4872634 -0.78252178 15
3.012579 0.93542993 -1.493131 7
8.9648485 2.7836573 -0.65640843 5
3.1582842 0.98067254 -1.4723867 6
10.089327 3.1328168 -0.49266636 9
3.318732 1.0304929 -1.4515029 9
11.657654 3.6197948 -0.28340384 7
3.478344 1.0800537 -1.4222196 8
13.723639 4.2612996 0 7
3.6740594 1.1408248 -1.4002305 7
17.006233 5.2805719 0.41343069 7
3.8669655 1.2007238 -1.3681799 7
22.563612 7.0061822 1.1017913 8
4.0970311 1.272161 -1.3386493 9
28.077789 8.718379 2.0558629 16
4.3404183 1.3477347 -1.3032135 7
35.209579 10.932857 3.4396026 17
4.6231298 1.4355189 -1.2672702 7
42.999947 13.351828 5.2653437 27
4.9308133 1.5310571 -1.2233475 15
46.525932 14.446674 6.8467603 30
5.2816877 1.6400063 -1.1755328 8
64.881393 20.146193 11.161674 22
5.6592011 1.7572272 -1.1164672 9
70.938042 22.026829 13.994907 37
2.5225971 0.77460659 -1.5649644 4
6.1333408 1.8833472 -1.0541077 6
2.6418998 0.81124049 -1.5527897 7
6.6567984 2.0440838 -0.97866535 5
2.7651112 0.8490746 -1.537989 6
7.2862835 2.2373779 -0.89134049 7
2.8839157 0.88555562 -1.5153216 6
8.0047531 2.4579964 -0.78122127 15
3.0224149 0.92808414 -1.4965537 6
8.9601974 2.7513819 -0.65543187 4
3.1648426 0.97181898 -1.4740136 6
10.08766 3.0975885 -0.49210736 9
3.3184242 1.0189788 -1.4499612 8
11.653676 3.5784602 -0.28303245 8
3.4924054 1.0724027 -1.4265845 9
13.723574 4.2140579 0 8
3.6722353 1.1276226 -1.3981783 7
16.974955 5.21245 0.41227019 7
3.8707185 1.1885703 -1.3681799 7
22.499569 6.9088774 1.0975988 8
4.0991817 1.2587239 -1.3380533 9
4.3464684 1.3346574 -1.3037647 7
35.662552 10.950796 3.4804754 17
4.6294661 1.4215566 -1.2677767 8
37.035286 11.372317 4.5305743 27
4.9393196 1.5167025 -1.2242699 15
64.572464 19.828079 9.4932766 28
5.2849436 1.6228323 -1.175117 8
74.720734 22.944279 12.841891 24
5.6628146 1.7388641 -1.116097 15
72.746689 22.338114 14.337809 39
2.5279076 0.76900148 -1.5670047 4
6.1306977 1.8649871 -1.0528108 7
2.6356738 0.8017844 -1.5478914 7
6.6564422 2.0249212 -0.97783029 6
2.7673242 0.84183311 -1.537989 7
7.2902155 2.2177179 -0.89110821 7
2.886224 0.87800294 -1.5153216 5
8.0016336 2.4341347 -0.78029233 16
3.0196457 0.91859049 -1.4939866 7
8.9616432 2.7261741 -0.65501326 4
3.1638796 0.96246713 -1.4723867 6
10.086178 3.0682628 -0.49164155 9
3.3140182 1.00814 -1.4468778 8
11.645787 3.5427034 -0.28261465 8
3.491636 1.0621722 -1.4251295 9
13.705856 4.1693864 0 8
3.6769724 1.1185523 -1.3988624 7
16.94837 5.1557741 0.41129532 7
3.8774424 1.1795363 -1.3694605 7
22.443035 6.8272772 1.0939653 8
4.0951567 1.245766 -1.3356705 9
28.583727 8.6953049 2.0892065 33
4.3499475 1.3232745 -1.3037647 7
36.011162 10.954765 3.511687 26
4.6313205 1.4088696 -1.2672702 7
36.867279 11.2152 4.5064149 55
4.9321017 1.5003687 -1.2215031 15
36.761066 11.18289 5.4001951 16
5.2891736 1.6089916 -1.175117 8
72.482712 22.049582 12.447289 23
5.661706 1.7223177 -1.1149859 15
78.40081 23.849895 15.439835 46
2.5252368 0.76000959 -1.5639442 4
6.1324248 1.8456494 -1.0521622 7
2.6397109 0.79446232 -1.548871 6
6.6529388 2.0023062 -0.97643852 6
2.7681191 0.83310884 -1.53705 6
7.2777424 2.1903505 -0.88878518 7
2.8922393 0.87046474 -1.517117 5
8.001193 2.4080846 -0.77954918 15
3.0188963 0.90858412 -1.4922754 7
8.9658728 2.6984198 -0.65473425 4
3.161473 0.95149481 -1.4699463 6
10.087585 3.0360169 -0.49126887 9
3.3169951 0.99830168 -1.4468778 8
11.642846 3.504097 -0.28228971 8
3.4894207 1.0501958 -1.422947 8
13.704762 4.1246629 0 8
3.6802752 1.1076366 -1.3988624 7
16.919559 5.0922065 0.41022763 7
3.8791108 1.1674792 -1.3688202 7
22.38476 6.7370443 1.0901455 8
4.0970073 1.2330586 -1.3350748 8
28.521523 8.5839996 2.0827887 16
4.3520141 1.3098068 -1.3032135 7
36.331448 10.934519 3.5397406 26
4.6280699 1.3928902 -1.2652442 7
36.900398 11.105753 4.5064149 55
4.9383955 1.4862876 -1.2219642 13
36.625301 11.022959 5.375422 33
5.2826843 1.5899067 -1.1726221 8
72.132057 21.709272 12.375957 23
5.6649098 1.7049434 -1.1146157 15
77.370247 23.285788 15.223206 44
2.5307777 0.75349712 -1.5659846 4
6.1303072 1.8251975 -1.0508653 7
2.6353714 0.78463823 -1.5449523 7
6.6550531 1.9814318 -0.97588187 6
2.7739632 0.82590163 -1.5389279 6
7.2937274 2.1715865 -0.8899467 7
2.8879573 0.85984147 -1.5135262 5
8.0044851 2.3832028 -0.77917761 16
3.0233109 0.90014076 -1.493131 7
8.9547157 2.6661184 -0.65333909 4
3.1695349 0.94367659 -1.4723867 6
10.088888 3.0037992 -0.49089617 9
3.3181732 0.98793113 -1.4461069 8
11.630194 3.4626977 -0.28173265 7
3.4907351 1.0393085 -1.4222196 11
13.693936 4.0771427 0 7
3.6727374 1.0934967 -1.3947581 7
16.911594 5.0351472 0.40967059 9
3.8771091 1.154345 -1.3668995 7
22.322313 6.6460991 1.0861393 8
4.100647 1.2208997 -1.3350748 9
29.181704 8.6883688 2.129107 23
4.3577228 1.2974398 -1.3037647 7
36.691994 10.924434 3.5716951 27
4.6266184 1.3774991 -1.2637247 7
36.923664 10.993409 4.5052538 46
4.9465137 1.4727426 -1.2228864 12
36.695801 10.925568 5.3809891 33
5.2911277 1.5753456 -1.1734537 8
72.220734 21.502527 12.380173 23
5.6661754 1.6870098 -1.113875 15
72.741028 21.657436 14.299667 39
2.5364335 0.74651229 -1.568025 4
6.1379056 1.8064822 -1.0511895 7
2.6428421 0.77783 -1.5478914 6
6.6593461 1.9599503 -0.97560352 6
2.7697687 0.8151865 -1.5351721 7
7.2947979 2.1469738 -0.88924974 8
2.894074 0.85177147 -1.5153216 6
8.0023832 2.3552272 -0.77824867 16
3.0191877 0.88859439 -1.4897083 7
8.9611349 2.637403 -0.65319961 4
3.1724846 0.93371212 -1.4723867 6
10.084861 2.9681332 -0.490244 9
3.3283427 0.97958362 -1.4491904 9
11.619918 3.4199245 -0.28122202 8
3.4939837 1.0283344 -1.4222196 9
13.689412 4.0290093 0 7
3.683367 1.0840728 -1.3974942 7
16.879379 4.9678669 0.40851 13
3.8788998 1.1416212 -1.3662592 7
22.26259 6.5522304 1.0822263 8
4.1154528 1.2112424 -1.3386493 9
29.321783 8.6298618 2.1373384 28
4.3544011 1.2815688 -1.3015597 7
37.01078 10.892855 3.5993769 27
4.6272116 1.3618611 -1.2627116 7
36.978989 10.883497 4.5078087 46
4.9473829 1.4560926 -1.2219642 6
36.625454 10.779448 5.3656802 24
5.290422 1.5570544 -1.1722063 14
74.722664 21.992054 12.797146 24
5.6733336 1.6697513 -1.1142453 15
75.154236 22.119072 14.760325 42
2.5302498 0.73702246 -1.562924 4
6.133451 1.7865791 -1.0495683 7
2.633285 0.76703507 -1.5410336 5
6.6571865 1.9391351 -0.97449011 6
2.7720337 0.80745041 -1.5351721 6
7.2931347 2.1243768 -0.88832057 7
2.8861451 0.84068924 -1.5099354 6
8.0127506 2.3339899 -0.77862024 15
3.0251276 0.88117272 -1.4914196 7
8.9550552 2.6084685 -0.65222305 4
3.1785874 0.92587316 -1.4740136 6
10.093108 2.9399657 -0.490244 9
3.3275211 0.96925521 -1.4476486 9
11.615983 3.3835554 -0.28089705 8
3.5039957 1.0206596 -1.4251295 9
13.681405 3.9851811 0 7
3.6863792 1.0737851 -1.3974942 7
16.827915 4.9017105 0.4069317 15
3.882072 1.1307873 -1.3662592 7
22.211744 6.4699364 1.0788723 8
4.1078196 1.1965442 -1.3350748 6
29.472187 8.5847902 2.1465461 41
4.3616538 1.2704821 -1.3026623 7
37.329746 10.873575 3.6274304 27
4.6309958 1.3489372 -1.2627116 7
37.11412 10.810767 4.5205855 46
4.9495606 1.4417301 -1.2215031 6
36.723862 10.697091 5.375701 24
5.2909918 1.5411837 -1.1713746 16
74.759132 21.776175 12.792931 24
5.6685386 1.6511573 -1.1123939 13
2.535604 0.73090595 -1.5649644 4
6.1327281 1.7678026 -1.0485955 7
2.6454694 0.76257545 -1.5469117 6
6.656867 1.9188894 -0.9736551 6
2.7861557 0.80312926 -1.5417447 6
7.2971311 2.1034501 -0.88808829 7
2.8919165 0.8336156 -1.5117309 6
8.0115843 2.3093965 -0.77787715 15
3.0310512 0.87372214 -1.493131 6
8.9603882 2.5828958 -0.65208352 4
3.1758943 0.91547424 -1.4715732 6
10.082084 2.9062326 -0.48931238 8
3.3284416 0.95944709 -1.4468778 8
11.604254 3.3450091 -0.28038642 8
3.4996722 1.0088054 -1.4222196 8
13.677107 3.9425237 0 7
3.6839464 1.0619239 -1.3954422 7
16.810797 4.8458323 0.40618894 13
3.885215 1.1199409 -1.3662592 7
22.151022 6.38519 1.0750524 8
4.1093111 1.1845382 -1.3344789 8
29.515219 8.5079727 2.1479414 29
4.3596435 1.2566984 -1.3010085 7
37.704388 10.86856 3.6608717 28
4.6347451 1.3359983 -1.2627116 8
37.56982 10.829769 4.5723886 46
4.9442177 1.4252061 -1.2191975 6
36.686989 10.575286 5.3659587 16
5.3140731 1.5318195 -1.1755328 20
36.680691 10.573471 6.2717948 7
5.68257 1.6380414 -1.1142453 9
74.677925 21.526445 14.64294 41
2.5392892 0.72429466 -1.5659846 4
6.1281509 1.7479643 -1.0469743 7
2.6408813 0.75327229 -1.5429929 5
6.6526766 1.8975774 -0.9722634 6
2.7781982 0.79243994 -1.536111 6
7.297245 2.0814312 -0.88739139 8
2.9045448 0.8284784 -1.517117 8
8.0103416 2.2848313 -0.777134 15
3.0300021 0.86426324 -1.4914196 7
8.9618092 2.5562234 -0.65166497 4
3.1714098 0.9045977 -1.4683193 6
10.092081 2.8786166 -0.48940554 9
3.3204594 0.9471119 -1.4422528 8
11.594321 3.3071084 -0.27992222 8
3.5024753 0.99902922 -1.4222196 8
13.659214 3.8960884 0 8
3.6850896 1.0511173 -1.3947581 7
16.783884 4.7873545 0.40521407 8
3.8828607 1.1075286 -1.3643385 7
22.101522 6.304132 1.0717916 8
4.1126027 1.173059 -1.3344789 6
29.638628 8.4539804 2.155196 35
4.3612866 1.2439924 -1.3004571 7
38.08503 10.863191 3.6948698 28
4.6384573 1.3230513 -1.2627116 7
37.861626 10.799467 4.6042142 28
4.9500499 1.4119284 -1.2196586 6
36.870647 10.516806 5.3885045 16
5.297636 1.5110722 -1.1709588 18
77.864914 22.209812 13.302962 23
5.683342 1.6210891 -1.1135048 9
79.767128 22.752392 15.628319 47
2.5396464 0.71673399 -1.5649644 4
6.1292095 1.7297733 -1.0463259 7
2.6446526 0.74636865 -1.5439727 5
6.6503243 1.8768414 -0.97114998 7
2.7837994 0.78563833 -1.537989 6
7.3030286 2.0610464 -0.88739139 8
2.8982465 0.81793743 -1.5126284 6
8.001359 2.2581277 -0.7756477 13
3.0358832 0.85678095 -1.493131 6
8.9612322 2.5290213 -0.65110695 4
3.1704068 0.89474595 -1.4666924 6
10.084698 2.8460834 -0.48866022 9
3.3301957 0.93984127 -1.4453361 8
11.59004 3.2709184 -0.27959725 8
3.4980793 0.98722106 -1.4193097 8
13.648868 3.8519564 0 8
3.6934366 1.0423543 -1.3968102 7
16.76255 4.7306938 0.4043785 8
3.8841143 1.0961671 -1.3636984 7
22.038286 6.2196016 1.0678786 7
4.1176996 1.162089 -1.3350748 6
30.182474 8.5180378 2.1930041 24
4.3647432 1.2318091 -1.3004571 7
37.19146 10.4961 3.6053219 9
4.6346855 1.3079919 -1.2606857 7
37.677505 10.633271 4.578196 9
4.9464808 1.3959861 -1.2178141 6
36.829342 10.393905 5.3782058 24
5.3018346 1.4962733 -1.1709588 18
77.626526 21.907604 13.251732 23
5.6859546 1.6046789 -1.1131344 9
80.938789 22.842384 15.845317 48
2.5468569 0.71013737 -1.568025 4
6.1308117 1.7094475 -1.0456774 12
2.6486642 0.73852414 -1.5449523 5
6.6466498 1.8532782 -0.96975827 6
2.7811511 0.77546531 -1.5351721 6
7.3018146 2.0359571 -0.88646221 7
2.905967 0.81026763 -1.5153216 8
8.0064964 2.2324426 -0.77546197 13
3.0350776 0.84626734 -1.4914196 6
8.9537592 2.4965668 -0.64999086 4
3.1784823 0.88625276 -1.4691329 6
10.095515 2.8149214 -0.48875338 9
3.3277991 0.92788661 -1.4430236 8
11.588704 3.2312655 -0.27931872 8
3.5065477 0.97772682 -1.4214921 9
13.633931 3.8015339 0 8
3.6858315 1.0277164 -1.3927059 7
16.740738 4.6678019 0.40349647 8
3.8930149 1.0854851 -1.3656191 7
21.990366 6.1315494 1.0646178 7
4.1139741 1.1470948 -1.3326917 6
4.3667402 1.2175734 -1.2999058 7
38.908421 10.848793 3.7684402 20
4.6350455 1.2923847 -1.2596728 7
37.827457 10.547388 4.5923667 9
4.9527178 1.3809608 -1.2182753 6
36.858006 10.277077 5.3776493 24
5.304625 1.4790828 -1.1705428 16
78.046654 21.761663 13.311716 23
5.6947551 1.5878624 -1.113875 9
2.5390022 0.69983524 -1.5619038 4
6.1320515 1.6902018 -1.0450289 17
2.6525245 0.73112589 -1.5459321 6
6.6463914 1.8319713 -0.96892321 6
2.7834396 0.76721054 -1.5351721 7
7.3001628 2.0121729 -0.88553298 7
2.9083583 0.80164236 -1.5153216 8
8.0054045 2.2065616 -0.77471876 14
3.0340896 0.83629817 -1.4897083 6
8.9476633 2.46628 -0.64901423 4
3.1775751 0.8758477 -1.4675059 6
10.088414 2.7807097 -0.48800805 8
3.3412125 0.92095172 -1.4476486 9
11.586675 3.1936812 -0.27904019 8
3.498657 0.96434873 -1.4171273 8
13.627797 3.756284 0 8
3.6979237 1.0192734 -1.3961263 7
16.725599 4.6101437 0.40280014 8
3.8962183 1.0739301 -1.3656191 7
21.912159 6.0397353 1.0599594 7
4.1155186 1.1343768 -1.3320959 6
30.86867 8.5084543 2.2390435 38
4.3684797 1.2041014 -1.2993546 7
39.34359 10.844431 3.8074551 31
4.6407247 1.2791414 -1.2601792 7
37.870075 10.438279 4.5937605 9
4.9492879 1.364192 -1.2164308 6
38.975231 10.742898 5.6818814 19
5.3071041 1.4628183 -1.1701272 8
78.135612 21.536831 13.315931 23
5.6899672 1.5683484 -1.1120236 9
80.561447 22.205473 15.744595 47
2.5442662 0.69364655 -1.5639442 4
6.1367474 1.6730695 -1.0450289 15
2.652874 0.72325647 -1.5449523 6
6.6438384 1.8113183 -0.96780986 6
2.7889786 0.76036286 -1.53705 7
7.2980876 1.9896871 -0.88460374 8
2.9123099 0.79398686 -1.5162194 8
8.015379 2.1852431 -0.7750904 15
3.0311811 0.82639486 -1.4871413 7
8.948741 2.439707 -0.64859569 4
3.1782458 0.86648929 -1.4666924 6
10.090358 2.7509472 -0.48772851 9
3.3348689 0.90918958 -1.4437945 8
11.585904 3.1586802 -0.27880809 7
3.5067286 0.95604396 -1.4193097 8
13.622798 3.7140009 0 8
3.6916895 1.0064701 -1.3927059 7
16.707542 4.5549994 0.40205741 7
3.893718 1.0615494 -1.3636984 7
21.85955 5.9595976 1.0566053 7
4.122355 1.123883 -1.3332875 6
31.196442 8.505126 2.2610862 26
4.3644061 1.1898737 -1.2971495 7
39.740677 10.834553 3.8429399 21
4.6405454 1.2651579 -1.2591661 7
37.977654 10.353897 4.6032848 9
4.9549565 1.3508762 -1.2168919 6
38.963043 10.622545 5.6757579 19
5.307394 1.4469616 -1.1692954 8
73.237312 19.966784 12.471607 23
5.6886368 1.5509003 -1.1109127 13
79.455078 21.66194 15.516486 46
2.5429909 0.6851998 -1.5619038 4
6.1397791 1.6543415 -1.0447047 17
2.6516409 0.71447515 -1.5429929 4
6.6453586 1.7905681 -0.96725315 7
2.7895172 0.75162542 -1.536111 6
7.2982044 1.9664751 -0.88390684 8
2.909476 0.78394789 -1.5135262 8
8.016058 2.1598983 -0.77453303 16
3.038856 0.81880891 -1.4897083 7
8.9540138 2.4126272 -0.64845616 5
3.1843309 0.85800654 -1.4683193 6
10.086902 2.7178795 -0.4871695 8
3.3304241 0.89737082 -1.440711 8
11.572057 3.1180494 -0.27825105 8
3.507751 0.94515097 -1.4185822 8
13.602859 3.6652417 0 8
3.7001035 0.99697965 -1.3947581 7
16.699749 4.4996877 0.40154678 8
3.8986802 1.0504855 -1.3643385 7
21.80962 5.8765244 1.0533446 7
4.1164541 1.1091639 -1.3303087 8
31.439222 8.4711866 2.2768514 26
4.3679175 1.1769197 -1.2971495 7
40.130283 10.812961 3.8774953 33
4.6461473 1.2518878 -1.2596728 7
39.327831 10.596744 4.7631083 10
4.9533052 1.3346504 -1.2155086 6
39.017342 10.513083 5.6790981 9
5.3135529 1.4317178 -1.1697114 8
73.462021 19.794079 12.499817 23
5.6970081 1.5350386 -1.1116532 15
2.5464385 0.67898238 -1.562924 4
6.1421828 1.6377517 -1.0443804 15
2.6602416 0.70932686 -1.5469117 4
6.6366286 1.7695907 -0.96530473 7
2.7761192 0.74022442 -1.5276606 6
7.29949 1.946336 -0.88344228 8
2.9132452 0.7767877 -1.5144238 8
8.0120649 2.136337 -0.77360409 15
3.039243 0.8103838 -1.4888527 6
8.9487333 2.3860903 -0.64761913 5
3.1830359 0.84872466 -1.4666924 6
10.086262 2.6894009 -0.48679686 8
3.3398948 0.8905496 -1.4437945 8
11.56859 3.0846488 -0.27797252 8
3.5102136 0.93596339 -1.4185822 8
13.595016 3.6249752 0 8
3.7008853 0.98680413 -1.3940741 7
16.68829 4.4497657 0.40098974 7
3.8940938 1.0383213 -1.3617777 7
21.774742 5.8060174 1.0509223 7
4.1193442 1.0983819 -1.3303087 8
31.438162 8.3826723 2.2751772 13
4.3765569 1.1669652 -1.2988033 7
40.577915 10.819696 3.9179964 22
4.6568871 1.2417123 -1.2616987 8
45.616531 12.163192 5.5208755 46
4.953022 1.3206738 -1.2145863 6
66.507896 17.733667 9.673645 29
5.3135023 1.4167923 -1.1688796 8
73.694756 19.649969 12.530621 23
5.7010078 1.5201168 -1.1116532 18
74.849945 19.957989 14.59517 41
2.5501053 0.67186272 -1.5639442 4
6.1451063 1.6190186 -1.0440563 10
2.6522179 0.69876581 -1.5410336 5
6.6399341 1.7493882 -0.96502638 7
2.7902565 0.73513407 -1.5342332 6
7.2975483 1.9226464 -0.88251311 8
2.9120805 0.76723045 -1.5126284 8
8.0125923 2.1110351 -0.77304679 16
3.0398858 0.80090255 -1.4879969 6
8.9499865 2.3580055 -0.64720058 5
3.1837728 0.83881176 -1.4658788 6
10.096128 2.6599731 -0.48689002 9
3.3371685 0.87922609 -1.4414819 8
11.56609 3.0472562 -0.27769399 8
3.5147765 0.92601955 -1.4193097 9
13.586371 3.5795293 0 8
3.6983447 0.97438329 -1.392022 7
16.674351 4.3931026 0.40033984 8
3.8971574 1.0267633 -1.3617777 7
21.710733 5.7200117 1.0470092 7
4.126277 1.0871284 -1.3315002 8
31.318197 8.2512398 2.2647138 13
4.3762813 1.1529956 -1.2977008 7
40.270924 10.609967 3.8852983 22
4.6493244 1.2249328 -1.2586597 7
46.07502 12.139141 5.5719819 63
4.9493909 1.3039898 -1.2127419 6
66.598526 17.54636 9.6792116 89
5.312007 1.3995264 -1.1676321 8
73.937843 19.480011 12.562071 23
5.7035923 1.5026952 -1.1112829 15
75.089378 19.7834 14.630349 41
2.5470932 0.66299266 -1.5608836 4
6.1479735 1.6002796 -1.0437319 7
2.6542797 0.69089264 -1.5410336 4
6.6393461 1.7281809 -0.96419132 7
2.7975523 0.72818565 -1.53705 6
7.2955317 1.8989819 -0.88158381 8
2.9056966 0.7563349 -1.50814 6
8.0168943 2.0867481 -0.772861 15
3.0370007 0.79051256 -1.48543 7
8.9511509 2.3299294 -0.64678204 4
3.1862478 0.82936066 -1.4658788 6
10.082708 2.6244669 -0.48586518 7
3.3433347 0.87024939 -1.4430236 6
11.561536 3.0093966 -0.27736902 8
3.5139031 0.91464728 -1.4178548 9
13.573708 3.5331523 0 8
3.697582 0.96245778 -1.3906538 7
16.662155 4.3370562 0.39973632 7
3.8965197 1.01424 -1.3604971 7
21.661873 5.6384521 1.0438415 7
4.1313319 1.0753603 -1.3320959 9
31.213181 8.1245985 2.2553663 6
4.3796835 1.1400045 -1.2977008 7
40.72813 10.601281 3.9263566 22
4.6548114 1.2116187 -1.2591661 7
46.735619 12.164993 5.6474795 32
4.9607716 1.2912583 -1.2145863 6
66.725044 17.368118 9.6900673 59
5.3066711 1.3812938 -1.1655531 8
74.157661 19.302782 12.589632 47
5.7099285 1.4862591 -1.1116532 15
2.5490487 0.65543401 -1.5608836 4
6.1469593 1.5805607 -1.0427592 7
2.6613836 0.6843186 -1.5439727 4
6.6406064 1.7074918 -0.96363461 10
2.7877283 0.71680546 -1.5304774 7
7.2972851 1.8763427 -0.88111925 8
2.9113891 0.74860221 -1.5099354 6
8.0114765 2.0599821 -0.77174628 15
3.0340798 0.78014952 -1.4828629 9
8.9502935 2.301379 -0.64622402 5
3.1922336 0.82081538 -1.4675059 6
10.084645 2.5930536 -0.48558569 8
3.3405395 0.85894918 -1.440711 8
11.580094 2.9775767 -0.27760115 9
3.5111878 0.9028278 -1.4156723 8
13.557011 3.485899 0 10
3.7058814 0.95288914 -1.3927059 7
16.649775 4.2811379 0.39913288 7
3.8995111 1.002677 -1.3604971 7
21.610783 5.5567565 1.0405807 7
4.130806 1.0621495 -1.3309045 8
31.038122 7.9807978 2.2409966 6
4.375598 1.1250926 -1.2954956 7
41.266624 10.610841 3.9752178 35
4.6471415 1.1949143 -1.2561271 7
45.857655 11.791327 5.5371361 15
4.9551563 1.2741138 -1.2122808 6
69.091469 17.765411 10.026031 32
5.3069558 1.3645716 -1.1647214 8
74.247086 19.09107 12.595143 23
5.7124085 1.4688251 -1.1112829 15
82.021889 21.090195 15.956408 49
2.5493152 0.64744377 -1.5598634 4
6.1535354 1.5627995 -1.0430835 7
2.6600225 0.67555988 -1.5420133 5
6.6437244 1.6872916 -0.96335632 12
2.7949779 0.70983422 -1.5332943 6
7.2951193 1.8527249 -0.88019007 8
2.9066689 0.73820013 -1.5063446 6
8.015624 2.0357099 -0.77156049 17
3.0398858 0.77203292 -1.4845744 7
8.9493484 2.2728457 -0.64566594 5
3.1840296 0.80864078 -1.462625 6
10.088423 2.5621338 -0.48539934 7
3.3412848 0.84857851 -1.4399401 8
11.571437 2.9387715 -0.27718332 9
3.5192683 0.89378059 -1.4178548 9
13.54791 3.440732 0 9
3.6977637 0.9391126 -1.3886019 7
16.629459 4.2233462 0.39834368 7
3.9079788 0.99250048 -1.3624178 7
21.567148 5.4773598 1.0376925 7
4.1357903 1.0503572 -1.3315002 6
30.877958 7.8420053 2.2277427 6
4.3845077 1.1135235 -1.2971495 7
4.6487918 1.1806431 -1.2556206 7
47.586742 12.085497 5.7415619 34
4.9645743 1.2608416 -1.2136642 6
56.649223 14.387074 8.2142754 19
5.307189 1.3478547 -1.1638898 8
74.366539 18.886702 12.605844 23
5.7072167 1.4494489 -1.1094314 8
82.1203 20.855906 15.963444 49
2.554338 0.64160603 -1.5619038 4
6.1537771 1.5457237 -1.0424351 7
2.6634729 0.66901886 -1.5429929 5
6.648119 1.6698939 -0.96335632 12
2.793401 0.70165461 -1.5314163 7
7.2903113 1.8312016 -0.87902856 8
2.9103248 0.73102385 -1.5072423 6
8.0093374 2.0118089 -0.77044582 17
3.0366366 0.76275122 -1.4820074 7
8.9552679 2.2494102 -0.64566594 4
3.1914515 0.80163813 -1.4650655 6
10.085407 2.5332818 -0.48493353 8
3.3506544 0.84162706 -1.4430236 8
11.550003 2.9011633 -0.27648702 7
3.521596 0.88456476 -1.4178548 9
13.533593 3.3994074 0 9
3.7038546 0.93034494 -1.3899698 7
16.61137 4.172492 0.39764735 7
3.9068882 0.98134357 -1.3611375 7
21.517473 5.4048214 1.034618 7
4.1348224 1.0385966 -1.3303087 5
30.710684 7.7139988 2.21421 6
4.3874078 1.1020418 -1.2971495 7
40.319008 10.127446 3.8784244 11
4.6556196 1.169412 -1.2566338 7
47.571976 11.949267 5.7359862 16
4.9621954 1.2464186 -1.2122808 6
56.377434 14.161047 8.1694622 19
5.3144941 1.33491 -1.1647214 8
78.241974 19.653046 13.254002 23
5.7109919 1.4345036 -1.1094314 8
82.376671 20.691612 16.002695 49
2.5580108 0.63399255 -1.562924 4
6.1605177 1.5268592 -1.0427592 10
2.6621766 0.65980965 -1.5410336 4
6.6533318 1.6490012 -0.96335632 12
2.7921631 0.69202626 -1.5295384 7
7.2902431 1.8068571 -0.8783316 8
2.9108722 0.72144783 -1.5063446 6
8.0175505 1.9871172 -0.77063155 17
3.0407722 0.75364298 -1.4828629 6
8.9506702 2.2183874 -0.64482886 4
3.1904075 0.79072946 -1.4634385 6
10.08168 2.4987035 -0.48437452 8
3.349699 0.83020926 -1.4414819 8
11.547415 2.8619797 -0.27620849 8
3.5243573 0.87349761 -1.4178548 9
13.532557 3.3539894 0 7
3.7122314 0.92006147 -1.392022 7
16.603046 4.1149974 0.39713672 7
3.9062736 0.96815401 -1.359857 7
21.485865 5.3251843 1.0322889 7
4.1343579 1.0246838 -1.3291173 5
30.606953 7.5858088 2.2050021 6
4.3871155 1.0873287 -1.2960469 7
41.203018 10.212 3.9603553 34
4.6611481 1.1552466 -1.2571402 7
49.336884 12.227945 5.9441285 36
4.9604192 1.2294197 -1.2108974 6
55.473911 13.748983 8.0322371 19
5.3167629 1.3177379 -1.1643056 8
78.268845 19.398615 13.248165 23
5.7040238 1.4137191 -1.1072097 8
2.5546496 0.6260643 -1.5598634 4
6.1702452 1.5121331 -1.0437319 15
2.6655886 0.65325195 -1.5420133 4
6.6576266 1.631575 -0.96335632 12
2.7973959 0.68555385 -1.5314163 7
7.2930202 1.78729 -0.87809932 8
2.9162228 0.71467453 -1.50814 6
8.0130548 1.963748 -0.76970261 17
3.0462468 0.74653935 -1.4845744 6
8.9525728 2.1939943 -0.64454985 4
3.1977904 0.78367794 -1.4658788 6
10.080426 2.4703958 -0.48400185 8
3.3446915 0.81967878 -1.4383985 8
11.545158 2.8293555 -0.27597636 8
3.5302513 0.86515367 -1.4193097 9
13.516041 3.3123567 0 9
3.7091515 0.90899646 -1.3899698 7
16.592403 4.0662766 0.39662611 7
3.9106352 0.95837379 -1.3604971 7
21.43182 5.2522655 1.0290279 7
4.1333179 1.0129464 -1.3279257 8
30.48913 7.4719272 2.1950967 6
4.3880801 1.0753806 -1.2954956 7
42.084496 10.313587 4.0424714 36
4.6585193 1.1416566 -1.2556206 7
45.834122 11.232503 5.5185523 15
4.9655113 1.2168908 -1.2113584 6
56.390732 13.819596 8.1597195 58
5.3106942 1.3014842 -1.1622264 8
78.501465 19.238241 13.278969 23
5.7096152 1.3992472 -1.1075799 8
2.5549321 0.6176306 -1.5588434 4
6.1672926 1.4908847 -1.0424351 17
2.6659331 0.64446408 -1.5410336 5
6.6569452 1.6092534 -0.96252126 10
2.7978196 0.67634642 -1.5304774 7
7.2831531 1.7606332 -0.87624091 8
2.9167168 0.70508868 -1.5072423 6
8.0172501 1.9380944 -0.76951689 17
3.0415487 0.73526561 -1.4811517 7
8.9536037 2.164449 -0.64413124 4
3.202013 0.77405632 -1.4666924 6
10.076488 2.4358954 -0.48344284 8
3.352632 0.81046706 -1.440711 8
11.544274 2.7907188 -0.27574426 8
3.5202763 0.85099345 -1.4142174 8
13.522493 3.2689347 0 10
3.7119894 0.89733827 -1.3899698 7
16.572058 4.0061383 0.39583692 7
3.9173105 0.94697267 -1.3617777 7
21.386078 5.1698818 1.0260466 7
4.1457591 1.0021981 -1.3309045 9
30.411613 7.3517199 2.1878421 6
4.3914375 1.0615884 -1.2954956 7
41.785709 10.101299 4.0107026 48
4.6620836 1.1270145 -1.2556206 7
45.469505 10.991822 5.4704661 30
4.9655275 1.2003692 -1.2104363 6
55.744694 13.475752 8.060071 38
5.316659 1.285252 -1.1626424 8
72.963966 17.638348 12.332833 23
5.708252 1.3799158 -1.106469 8
2.5583198 0.61089349 -1.5598634 4
6.1695118 1.4731992 -1.0421108 15
2.6694181 0.63742232 -1.5420133 5
6.6614127 1.5906587 -0.96252126 7
2.796262 0.66771096 -1.5285995 7
7.2841763 1.7393665 -0.87577635 8
2.9221509 0.69777161 -1.5090377 8
8.0110092 1.9129248 -0.76840216 19
3.0471065 0.7276094 -1.4828629 7
8.9499102 2.1371222 -0.64343369 4
3.1934988 0.76256603 -1.4618115 6
10.073533 2.4054286 -0.482977 8
3.347702 0.79938769 -1.4376277 8
11.536463 2.7547572 -0.27537289 8
3.5208268 0.84072763 -1.4134898 8
13.517952 3.227911 0 10
3.7089965 0.88566011 -1.3879176 7
16.561789 3.9547393 0.39532632 7
3.9125679 0.93427026 -1.3592167 7
21.346022 5.0971522 1.023438 10
4.1373997 0.98795724 -1.32733 6
30.257372 7.2250667 2.1752858 6
4.3943844 1.0493219 -1.2954956 7
42.441307 10.134432 4.0708966 37
4.6633301 1.1135426 -1.2551142 7
45.349312 10.828825 5.4523463 45
4.9707527 1.186951 -1.2108974 6
5.3202267 1.270401 -1.1626424 8
72.961105 17.422161 12.324079 46
5.7101712 1.3635147 -1.1060988 8
88.745651 21.191307 17.190632 56
2.5583415 0.60335249 -1.5588434 4
6.1736016 1.4559659 -1.0421108 15
2.6643994 0.62836492 -1.5380945 5
6.6600451 1.5706875 -0.96168619 6
2.8015532 0.66071093 -1.5304774 6
7.2870717 1.7185638 -0.87554401 8
2.9153905 0.687558 -1.5045493 6
8.0143814 1.8900905 -0.76821637 16
3.0491264 0.71909791 -1.4828629 9
8.950017 2.1107485 -0.64301515 4
3.2009509 0.75490385 -1.464252 6
10.072433 2.3754561 -0.48260435 8
3.3517172 0.79046011 -1.4383985 8
11.536327 2.7206969 -0.27518722 7
3.5213473 0.83046526 -1.4127624 8
13.497713 3.1832652 0 9
3.7114551 0.87529975 -1.3879176 7
16.547466 3.9025109 0.39472279 7
3.9188495 0.92421114 -1.3604971 7
21.299891 5.0233102 1.0205498 10
4.1401424 0.97640026 -1.32733 5
30.164799 7.113987 2.1671941 6
4.3954268 1.0366058 -1.2949444 7
42.667133 10.062504 4.0898466 25
4.6626554 1.0996283 -1.2541012 7
45.273033 10.677073 5.4395695 45
4.9721537 1.1726196 -1.2104363 6
55.263916 13.033297 7.9799075 38
5.3218493 1.255091 -1.1622264 8
73.17466 17.257318 12.351963 23
5.7101302 1.346662 -1.1053581 8
88.909691 20.968225 17.210999 56
2.5567691 0.59497976 -1.5568029 4
6.1875052 1.4398798 -1.0437319 14
2.6662519 0.62045723 -1.5380945 5
6.6646762 1.5509211 -0.96168619 5
2.7983413 0.65119541 -1.5276606 6
7.288269 1.6960359 -0.87507939 10
2.9174175 0.67890537 -1.5045493 6
8.0102568 1.8640479 -0.76728743 19
3.0477252 0.70922893 -1.4811517 7
8.9542971 2.0837333 -0.64287567 4
3.2049561 0.74581778 -1.4650655 6
10.077491 2.3451092 -0.48251119 9
3.3612375 0.78218567 -1.4414819 9
11.532663 2.6837389 -0.27490869 8
3.5274248 0.82085872 -1.4142174 9
13.487618 3.1386721 0 9
3.7122054 0.86385858 -1.3872337 7
16.518076 3.8438828 0.39374796 6
3.9141927 0.91086257 -1.3579363 7
21.28746 4.9537544 1.0192455 10
4.1430211 0.9641127 -1.32733 8
30.047808 6.9923544 2.1572886 5
4.3891201 1.0213817 -1.292188 7
42.652187 9.9254904 4.0855737 12
4.6583595 1.0840359 -1.2520752 7
49.386871 11.492702 5.9297256 17
4.9718194 1.1569804 -1.209514 6
55.703575 12.962647 8.0378036 38
5.3217392 1.2384094 -1.1613948 8
78.869064 18.353434 13.303935 23
5.7179294 1.3306059 -1.1060988 8
88.127319 20.5079 17.047695 55
2.5635533 0.58854508 -1.5598634 4
6.1821332 1.419305 -1.0421108 7
2.6663821 0.61215264 -1.537115 5
6.6711788 1.5315809 -0.96196455 7
2.8019824 0.64328402 -1.5285995 7
7.2835889 1.6721791 -0.87391788 14
2.9281287 0.67224491 -1.5090377 8
8.0060482 1.8380425 -0.76635849 18
3.056864 0.70180017 -1.4845744 7
8.958497 2.0567074 -0.6427362 5
3.1982515 0.7342602 -1.4609982 6
10.072722 2.3125134 -0.48195219 8
3.3635437 0.77220827 -1.4414819 9
11.532781 2.647716 -0.27472299 8
3.5262136 0.80955428 -1.4127624 9
13.487126 3.0963981 0 10
3.7202477 0.85410094 -1.3892858 7
16.494333 3.7867978 0.39291239 6
3.9187253 0.8996678 -1.3585765 7
21.245598 4.8776011 1.0165436 10
4.1458635 0.95181465 -1.32733 6
29.94203 6.8741436 2.1482203 5
4.3996267 1.0100739 -1.2943931 7
42.629055 9.7868528 4.0805573 12
4.667213 1.071507 -1.2535946 7
46.859303 10.75804 5.6223912 16
4.9752307 1.1422222 -1.209514 6
56.454086 12.960828 8.1405134 39
5.3292036 1.223488 -1.1622264 8
78.967422 18.129478 13.311392 23
5.71419 1.3118738 -1.1046175 8
77.625252 17.821341 15.005838 43
2.5635092 0.5810042 -1.5588434 4
6.1649003 1.3972381 -1.0385441 7
2.6714818 0.60547554 -1.5390743 6
6.677362 1.5133846 -0.9622429 12
2.7986014 0.6342864 -1.5257827 8
7.2940416 1.6531514 -0.87461478 17
2.9212797 0.66209072 -1.5045493 6
8.0014391 1.8134788 -0.76542962 17
3.0552857 0.69246238 -1.4828629 6
8.9564219 2.0299201 -0.64217812 4
3.1949434 0.72411501 -1.4585577 6
10.061605 2.2804031 -0.48111367 8
3.3566878 0.76077342 -1.4376277 8
11.530379 2.6132922 -0.27449086 7
3.5302775 0.80011648 -1.4134898 9
13.468413 3.052536 0 9
3.7244508 0.84412473 -1.3899698 7
16.47364 3.7336531 0.39216959 6
3.917526 0.88788414 -1.357296 7
21.183147 4.8010349 1.0129101 10
4.1485052 0.94023418 -1.32733 6
29.805445 6.755228 2.1370595 5
4.3968053 0.99650985 -1.2927393 7
42.510559 9.6347666 4.0666237 12
4.6664128 1.0576148 -1.2525816 7
49.715725 11.267775 5.9613185 18
4.9746051 1.1274648 -1.2085917 6
55.350441 12.54485 7.9762897 57
5.3249674 1.2068723 -1.1605631 8
79.17749 17.94511 13.338305 23
5.7139978 1.2950437 -1.1038768 8
77.52137 17.569759 14.976213 43
2.5602851 0.57182217 -1.5557828 4
6.1750374 1.3791524 -1.0395168 7
2.6733708 0.5970791 -1.5390743 5
6.68015 1.4919658 -0.96196455 13
2.8040271 0.62626022 -1.5276606 9
7.2914448 1.6284943 -0.8736856 17
2.9198565 0.65213001 -1.5027537 6
7.9993234 1.7865942 -0.76468647 18
3.0539176 0.68207157 -1.4811517 7
8.9627552 2.00177 -0.64217812 5
3.2043352 0.71566635 -1.4618115 6
10.06482 2.2479086 -0.48092735 8
3.3572602 0.74982107 -1.4368567 8
11.528776 2.5748732 -0.27425879 7
3.5364101 0.78983301 -1.4149448 11
13.464273 3.0071533 0 9
3.7179139 0.8303706 -1.3865497 7
16.454069 3.6749036 0.39142686 6
3.9165978 0.87474537 -1.3560154 7
21.131832 4.7196503 1.0097424 10
4.1495752 0.92677915 -1.3267342 6
29.703852 6.6341519 2.1282701 5
4.396162 0.98185265 -1.2916367 7
42.474541 9.4863977 4.060307 12
4.6791539 1.0450569 -1.2551142 7
48.197983 10.764689 5.7752457 17
4.9743242 1.1109812 -1.2076696 6
55.553879 12.407578 7.999949 19
5.3249145 1.1892833 -1.1597315 8
79.212296 17.691525 13.334738 23
5.7161198 1.2766563 -1.1035066 8
2.565232 0.56541127 -1.5578231 4
6.1769376 1.3614794 -1.0391926 7
2.6716225 0.58886117 -1.537115 6
6.6707516 1.4703225 -0.96001613 11
2.8092139 0.61918813 -1.5295384 7
7.294024 1.6077 -0.87345332 18
2.9338834 0.646667 -1.5090377 8
8.000392 1.7633929 -0.76431495 18
3.0558102 0.67354131 -1.4811517 7
8.9546709 1.9737287 -0.6412015 5
3.2063212 0.70671588 -1.4618115 6
10.065206 2.2185054 -0.48064786 8
3.3611434 0.74084073 -1.4376277 8
11.526158 2.540519 -0.27402666 7
3.5386019 0.77995497 -1.4149448 6
13.472618 2.9695444 0 10
3.7202182 0.81998563 -1.3865497 7
16.448647 3.6255007 0.39105552 8
3.9190254 0.86380541 -1.3560154 7
21.100056 4.6507335 1.0075996 10
4.1502824 0.91477752 -1.3261384 6
29.597565 6.5236974 2.1193411 5
4.3970084 0.96915925 -1.2910854 7
42.469749 9.360898 4.0573344 12
4.6763859 1.0307378 -1.2535946 7
48.637173 10.720281 5.8242607 17
4.9850092 1.0987624 -1.209514 6
56.872559 12.53547 8.1847706 58
5.3224835 1.1731462 -1.158484 8
79.49073 17.520817 13.373322 23
5.7215819 1.2611129 -1.1038768 8
77.464951 17.074308 14.945477 43
2.5635359 0.55706745 -1.5557828 4
6.1751642 1.3418899 -1.0382198 7
2.6767654 0.58167273 -1.5390743 5
6.6770196 1.4509453 -0.96029443 11
2.8041363 0.60935092 -1.5257827 5
7.3026443 1.5868962 -0.87391788 12
2.9322963 0.63720071 -1.5072423 8
7.9997501 1.7383803 -0.76375753 19
3.0613282 0.66523987 -1.4828629 6
8.9526892 1.9454581 -0.64064342 5
3.204833 0.69642413 -1.4601846 6
10.065886 2.1873605 -0.48036835 8
3.3633265 0.73086542 -1.4376277 8
11.529737 2.5054619 -0.27393383 6
3.5299773 0.76707935 -1.41058 6
13.457916 2.9244635 0 10
3.7171247 0.8077473 -1.3844975 7
16.422209 3.5686169 0.39017349 6
3.9178679 0.85136968 -1.3547351 7
21.068859 4.5783544 1.0054568 10
4.151113 0.90205479 -1.3255427 6
29.439373 6.3973031 2.1066456 5
4.4036222 0.95692617 -1.292188 7
42.45063 9.2247057 4.0528755 12
4.6756415 1.0160372 -1.2525816 7
49.65099 10.789375 5.9418054 18
4.9787378 1.0819013 -1.2072084 6
56.474045 12.272055 8.1221428 39
5.324029 1.1569345 -1.1580682 8
80.007141 17.385899 13.451466 23
5.721457 1.2432973 -1.1031362 8
77.486465 16.838144 14.939923 43
2.5633037 0.54999381 -1.5547625 4
6.1728673 1.3244777 -1.0372472 7
2.6731644 0.57356602 -1.5361352 5
6.6866045 1.4347075 -0.96112949 12
2.812628 0.60348994 -1.5295384 7
7.3028884 1.5669402 -0.87345332 9
2.9269645 0.62802249 -1.5036515 6
7.9945383 1.7153436 -0.76282871 18
3.0577569 0.65608591 -1.4802961 7
8.9518986 1.9207591 -0.64022493 5
3.2012858 0.68688208 -1.4577441 6
10.06181 2.1589067 -0.47990248 8
3.3562059 0.72012246 -1.4337735 8
11.522572 2.4723339 -0.27360886 7
3.5319731 0.75783581 -1.41058 5
13.445971 2.8850272 0 9
3.7229016 0.79880226 -1.3858656 7
16.394348 3.5176442 0.3892915 6
3.9256411 0.84230298 -1.3566558 7
21.02803 4.5118675 1.0029413 10
4.1497264 0.89038372 -1.3243512 8
29.342876 6.295938 2.0985537 5
4.4023523 0.94458824 -1.2910854 7
42.398701 9.0972528 4.04563 12
4.676394 1.0033878 -1.2520752 7
49.95681 10.718954 5.9750242 18
4.9720392 1.0668228 -1.2049029 6
56.705429 12.166968 8.1508121 39
5.3270392 1.1429931 -1.1580682 8
89.935913 19.297049 15.112227 21
5.726614 1.2287277 -1.1035066 8
77.851196 16.704098 15.001764 43
2.5782933 0.54568231 -1.562924 4
6.1707497 1.3060068 -1.0362744 7
2.6730502 0.56573707 -1.5351555 5
6.6847725 1.4147971 -0.96029443 9
2.8125746 0.5952667 -1.5285995 7
7.3014059 1.5453043 -0.87275642 9
2.9252102 0.6191054 -1.5018561 6
7.9992981 1.6930095 -0.76282871 19
3.0578086 0.64716917 -1.4794403 6
8.9455175 1.8932718 -0.63938785 5
3.2067666 0.67869538 -1.4593711 6
10.061937 2.1295564 -0.47962302 7
3.3636205 0.71189266 -1.4360859 8
11.513782 2.4368317 -0.2732375 7
3.5395439 0.7491259 -1.4127624 6
13.446149 2.8458071 0 7
3.7232795 0.78801262 -1.3851815 7
16.374765 3.4656334 0.38859516 8
3.9261243 0.83094364 -1.3560154 7
21.005371 4.4456768 1.0012643 10
4.1521969 0.87879074 -1.3243512 8
29.202242 6.1805015 2.0872531 11
4.4030929 0.9318915 -1.2905341 7
42.421993 8.9783926 4.045444 12
4.6810703 0.99072409 -1.2525816 7
53.059086 11.229678 6.3422933 19
4.9749994 1.0529326 -1.2049029 6
56.944576 12.052021 8.1803169 58
5.3340387 1.1289214 -1.1588999 8
79.175201 16.757017 13.296154 23
5.7242551 1.2115085 -1.1023957 8
78.007149 16.509804 15.022871 43
2.5682063 0.53512383 -1.5557828 4
6.1728902 1.2862132 -1.0359502 7
2.6833489 0.55911547 -1.5400538 6
6.6794896 1.3917706 -0.95890272 7
2.8127022 0.58606821 -1.5276606 6
7.3062243 1.5223601 -0.87275642 10
2.925391 0.60954857 -1.5009583 6
7.9889808 1.6646225 -0.76134235 26
3.0562873 0.6368227 -1.4777291 7
8.9455614 1.8639402 -0.6389693 5
3.2124605 0.66936374 -1.4609982 6
10.062711 2.096715 -0.47934353 8
3.3640337 0.70094627 -1.4353151 8
11.515509 2.3994269 -0.27309823 7
3.5291128 0.73534298 -1.40767 8
13.433486 2.7990658 0 6
3.7220566 0.77554566 -1.3838134 7
16.36404 3.4096904 0.38808453 6
3.9250054 0.81783307 -1.3547351 7
20.972292 4.3698878 0.99902827 10
4.1605439 0.86691099 -1.3261384 6
29.092604 6.0618749 2.0780454 5
4.4059987 0.91805512 -1.2905341 7
40.839722 8.5095606 3.8919866 11
4.6784773 0.97483009 -1.2510622 7
51.328316 10.695015 6.1313634 18
4.9839983 1.0384899 -1.2062862 6
56.939495 11.864188 8.1741934 58
5.3375587 1.1121595 -1.1588999 8
79.018784 16.464735 13.261135 23
5.7299562 1.1939213 -1.1027659 8
2.5714681 0.52784663 -1.5568029 4
6.1747465 1.2674935 -1.0356259 7
2.6730402 0.54869634 -1.5331962 5
