# .PCD v0.7 - Point Cloud Data file format
VERSION 0.7
FIELDS x y z intensity
SIZE 4 4 4 4
TYPE F F F F
COUNT 1 1 1 1
WIDTH 1417
HEIGHT 1
VIEWPOINT 0 0 0 1 0 0 0
POINTS 1417
DATA ascii
2.9445662 0.40387958 -1.492879 6
7.9941134 1.0964804 -0.75279629 16
3.0786417 0.42226949 -1.4708837 7
8.9244471 1.2240858 -0.62990099 5
3.2329156 0.44342986 -1.4528633 6
10.025141 1.3750581 -0.47189015 18
3.3897824 0.46494588 -1.4291483 9
11.362525 1.5584949 -0.26627424 12
3.551167 0.48708153 -1.3996679 9
13.259852 1.8187342 0 10
3.7425239 0.51332825 -1.3749208 7
15.92061 2.1836865 0.37309036 6
3.9495881 0.54172933 -1.3470522 7
20.074032 2.7533736 0.94489831 8
4.1688666 0.57180578 -1.3130319 6
27.111341 3.7186182 1.9135596 10
4.4226909 0.60662055 -1.2800599 7
41.440365 5.684001 3.9023905 11
4.6982093 0.64441097 -1.2414386 7
67.855942 9.307188 8.0095196 31
4.9917593 0.68467456 -1.193836 6
67.598541 9.2718821 9.5893049 29
5.3454146 0.73318231 -1.146841 8
67.344177 9.2369938 11.167834 22
5.7481012 0.78841519 -1.0931381 6
67.102081 9.2037868 12.761054 30
2.5932567 0.34785813 -1.5517019 4
6.1947236 0.83095711 -1.0268714 7
2.6993666 0.36209166 -1.5302571 7
6.6838613 0.89656973 -0.94776893 4
2.8213534 0.37845492 -1.5135765 6
7.2925434 0.97821814 -0.86044443 8
2.9439802 0.39490402 -1.4919814 6
7.9874635 1.0714343 -0.75186741 17
3.0780892 0.41289335 -1.470028 7
8.9300165 1.1978679 -0.63004047 6
3.2269733 0.43286458 -1.4496094 6
10.033136 1.3458399 -0.47207651 11
3.3838308 0.45390534 -1.426065 9
11.371063 1.5253086 -0.26636711 7
3.5599823 0.47753423 -1.4025778 9
13.233473 1.7751315 0 9
3.7421679 0.5019725 -1.3742369 7
15.925036 2.1361763 0.37304392 7
3.9530556 0.53026086 -1.3476925 7
20.064291 2.6914139 0.94405979 8
4.1724377 0.55968869 -1.3136277 6
27.033272 3.6262295 1.9072815 10
4.4244714 0.59349632 -1.2800599 7
41.255733 5.5340233 3.8834407 11
4.6924295 0.62944013 -1.2394125 7
67.869476 9.1039772 8.0078936 31
4.9956975 0.67012036 -1.1942971 6
67.665016 9.0765514 9.5948725 29
5.3533831 0.71810013 -1.1480885 8
79.31868 10.639768 13.148299 24
5.7426233 0.77031261 -1.0916568 8
2.5873959 0.33971852 -1.5476213 4
6.1911502 0.8128823 -1.0258987 7
2.6969099 0.3540974 -1.5282978 6
6.6863389 0.87789935 -0.94776893 4
2.8223994 0.37057388 -1.5135765 8
7.2991862 0.95836461 -0.86090899 7
2.9539316 0.38784373 -1.4964699 8
7.9904246 1.0491225 -0.75186741 17
3.0738533 0.40358913 -1.4674611 7
8.9254141 1.1718842 -0.62948239 5
3.2336044 0.42456403 -1.4520499 6
10.015067 1.3149529 -0.47105166 10
3.3905745 0.4451738 -1.4283775 11
11.365366 1.4922438 -0.26613501 6
3.5557609 0.46686235 -1.4003953 11
13.228465 1.7368639 0 10
3.7454185 0.49176395 -1.3749208 7
15.911117 2.0890892 0.37257969 6
3.9488854 0.51847863 -1.3457717 7
20.042019 2.6314662 0.9426623 8
4.172091 0.54778492 -1.3130319 6
26.968124 3.5408461 1.9019799 9
4.4222994 0.58063668 -1.2789575 7
41.08741 5.3946724 3.8661628 10
4.6980066 0.61683631 -1.2404256 7
69.275307 9.0956717 8.1707373 66
4.9936905 0.65565884 -1.1933749 6
79.96312 10.498954 11.334537 42
5.3476095 0.70212758 -1.1464252 8
5.7330604 0.75273621 -1.089435 8
2.5900407 0.33271143 -1.5486414 4
6.1914387 0.79533982 -1.0255744 7
2.6978881 0.34656531 -1.5282978 6
6.6907287 0.85947764 -0.94804722 4
2.8286777 0.36336628 -1.5163933 8
7.3018336 0.93797892 -0.86090899 7
2.951458 0.37913838 -1.4946744 8
7.983448 1.0255377 -0.75093848 16
3.0785546 0.39546496 -1.4691725 7
8.9207373 1.1459401 -0.62892437 5
3.2275286 0.41460186 -1.448796 6
10.020681 1.2872367 -0.47114483 10
3.3881435 0.43523413 -1.4268358 11
11.359573 1.459228 -0.26590288 6
3.5570505 0.45693159 -1.4003953 9
13.217394 1.6978799 0 10
3.7486415 0.481543 -1.375605 7
15.893089 2.0415943 0.37202263 6
3.9484384 0.50720853 -1.3451315 7
20.009657 2.5704005 0.940799 8
4.171711 0.53588963 -1.3124362 6
26.886879 3.4538345 1.8955624 9
4.4277172 0.56877565 -1.2800599 7
40.954178 5.2608914 3.8522289 10
4.6920347 0.60272938 -1.2383996 7
4.9935718 0.64146423 -1.1929138 6
79.82711 10.254431 11.311155 83
5.3534298 0.68769085 -1.1472567 8
5.7429376 0.73772621 -1.0909162 8
2.5892529 0.32526216 -1.5476213 4
6.1897197 0.77755308 -1.0249261 7
2.7023053 0.33946383 -1.5302571 5
6.6793475 0.83906019 -0.9460988 4
2.8261771 0.35502461 -1.5145153 6
7.3063965 0.91783011 -0.86114132 7
2.9489589 0.37044844 -1.492879 8
7.9843049 1.0029891 -0.75075275 16
3.0778534 0.38664019 -1.4683168 7
8.9258823 1.1212701 -0.6290639 5
3.2250483 0.4051308 -1.4471691 6
10.012344 1.2577515 -0.47058582 9
3.3856838 0.4253099 -1.4252942 9
11.351701 1.4260015 -0.26562434 11
3.554616 0.44653115 -1.3989403 8
13.204225 1.6587157 0 10
3.7481067 0.47083747 -1.3749208 7
15.890794 1.9962028 0.37183696 6
3.9479597 0.49594301 -1.3444914 7
19.983061 2.5102737 0.93921512 8
4.1675081 0.52352273 -1.3106489 6
26.825155 3.3697782 1.89054 9
4.4216585 0.55544907 -1.2778548 7
40.78891 5.1239061 3.8353226 10
4.6956191 0.58986408 -1.238906 7
71.037804 8.9237747 8.3726072 35
5.0011368 0.62824321 -1.1942971 6
79.676613 10.008983 11.285826 41
5.3533888 0.6724931 -1.146841 8
79.500984 9.9869204 13.164187 24
5.7391253 0.72094935 -1.0898052 8
2.5902619 0.31712669 -1.5476213 4
6.192132 0.75810486 -1.0249261 7
2.6998973 0.33054936 -1.5282978 6
6.6819506 0.81807357 -0.9460988 4
2.8272784 0.34614471 -1.5145153 6
7.2934694 0.89294201 -0.85928291 8
2.95543 0.36183435 -1.4955722 8
7.9893932 0.97814423 -0.75093848 17
3.0772583 0.37674981 -1.4674611 7
8.9214382 1.0922549 -0.62850583 4
3.226305 0.39499766 -1.4471691 6
10.016246 1.2262925 -0.47058582 8
3.396162 0.41579333 -1.4291483 9
11.370017 1.3920351 -0.26594931 13
3.5578504 0.43558887 -1.3996679 6
13.191504 1.6150405 0 10
3.7514331 0.45928928 -1.375605 7
15.88111 1.94433 0.37146562 7
3.9457366 0.48307794 -1.3432108 7
19.961103 2.443845 0.93781769 8
4.1691322 0.51042837 -1.3106489 6
26.780161 3.2787044 1.8866336 9
4.4233813 0.54155612 -1.2778548 7
40.611099 4.9720311 3.8171158 10
4.6974492 0.57511032 -1.238906 7
71.029999 8.696228 8.3684263 35
4.9992218 0.61205649 -1.1933749 6
82.312431 10.07754 11.654634 44
5.3535333 0.65543497 -1.1464252 8
5.7394109 0.70267808 -1.089435 8
2.5877752 0.3090311 -1.5455809 4
6.1943541 0.73972732 -1.0249261 7
2.700866 0.32253638 -1.5282978 6
6.6863146 0.79847711 -0.94637716 4
2.8335533 0.33838183 -1.5173322 5
7.3020043 0.87200248 -0.85997981 7
2.9511666 0.35242718 -1.492879 6
7.9883046 0.95396024 -0.75056684 15
3.0837476 0.36825994 -1.470028 7
8.9167175 1.0648309 -0.62794781 5
3.2274628 0.38542235 -1.4471691 6
10.013889 1.1958548 -0.47030634 9
3.3900511 0.40483856 -1.426065 11
11.376083 1.3585274 -0.26599574 13
3.5554273 0.42458776 -1.3982128 8
13.170422 1.5728066 0 18
3.7509129 0.44793257 -1.3749208 7
15.874896 1.8957739 0.37118706 7
3.9546783 0.47226614 -1.3457717 7
19.948429 2.3822336 0.93688601 8
4.1706285 0.49805483 -1.3106489 6
26.722414 3.1911802 1.8818901 9
4.4287868 0.52888399 -1.2789575 7
40.477371 4.8337922 3.8031819 10
4.6933713 0.56048054 -1.2373866 7
5.0029488 0.5974502 -1.193836 6
82.322304 9.8308973 11.651852 44
5.3535113 0.63931423 -1.1460093 8
97.571358 11.651934 16.144287 20
5.7395191 0.68541116 -1.0890647 8
2.592098 0.3017512 -1.5476213 4
6.1847591 0.71997988 -1.0229806 7
2.700079 0.31432146 -1.5273181 7
6.6847196 0.77818131 -0.94582051 4
2.8327909 0.32977071 -1.5163933 5
7.2986393 0.84964889 -0.85928291 7
2.952199 0.34367126 -1.492879 9
7.9732971 0.92818713 -0.74889481 14
3.0794394 0.35848358 -1.4674611 7
8.9138908 1.0376834 -0.6275292 4
3.2340364 0.37648049 -1.4496094 6
10.009455 1.1652201 -0.46993366 9
3.3949032 0.39520732 -1.4276067 9
11.378076 1.3245441 -0.26594931 7
3.5585217 0.41425446 -1.3989403 9
13.180988 1.5344245 0 16
3.7522252 0.43680388 -1.3749208 7
15.858603 1.8461311 0.37067643 6
3.9504158 0.45987564 -1.3438512 7
19.919687 2.3188899 0.93520892 8
4.1739841 0.48590165 -1.3112447 6
26.664385 3.1040533 1.8771467 9
4.422698 0.51485491 -1.2767524 7
40.362965 4.6987319 3.7911057 10
4.6930914 0.54633194 -1.2368801 7
4.9969664 0.58170658 -1.1919914 6
5.3553843 0.62343073 -1.1460093 8
94.641518 11.017405 15.654035 21
5.7415271 0.66838241 -1.0890647 8
2.5911183 0.295221 -1.5466011 4
6.1884608 0.70508695 -1.0233048 7
2.700839 0.30772209 -1.5273181 7
6.6806979 0.76117027 -0.94498545 4
2.8213065 0.32144764 -1.5098206 6
7.2987199 0.83158511 -0.85905063 7
2.9636843 0.33766958 -1.4982653 8
7.9893918 0.91027731 -0.75019532 15
3.0785105 0.35075238 -1.4666054 9
8.9144173 1.0156708 -0.62738973 4
3.2349467 0.36857608 -1.4496094 6
10.004333 1.1398511 -0.46956101 9
3.3958588 0.38690972 -1.4276067 8
11.371346 1.2956029 -0.26571721 7
3.5613744 0.40576786 -1.3996679 9
13.178738 1.5015293 0 16
3.7495472 0.42720744 -1.3735529 7
15.837242 1.8044281 0.37007296 8
3.9515281 0.45022029 -1.3438512 7
19.90346 2.2677155 0.93418413 8
4.175159 0.47569987 -1.3112447 6
26.62035 3.0330095 1.8735194 9
4.4315834 0.50491577 -1.2789575 7
40.253635 4.586328 3.7797732 10
4.698257 0.53529942 -1.237893 7
70.176666 7.9956307 8.2597094 34
5.0041738 0.57015425 -1.1933749 6
90.257301 10.283533 12.766906 54
5.3530049 0.60989863 -1.1451777 8
99.564415 11.343946 16.463663 24
5.7392373 0.65390432 -1.0883241 8
2.5988722 0.28783727 -1.5506818 4
6.188684 0.68542576 -1.0229806 7
2.7069914 0.29981199 -1.5302571 6
6.6830559 0.74017978 -0.94498545 4
2.8345883 0.31394395 -1.5163933 6
7.3012962 0.80865282 -0.85905063 7
2.9576252 0.32757086 -1.4946744 8
7.9783568 0.88364047 -0.74889481 13
3.0760038 0.34068185 -1.4648942 9
8.9056664 0.98634434 -0.62655264 5
3.2251928 0.35720521 -1.4447286 6
10.003892 1.1079779 -0.46937463 9
3.3878863 0.37522429 -1.4237524 8
11.361449 1.2583338 -0.26539227 6
3.5607798 0.39437306 -1.3989403 11
13.18339 1.4601222 0 9
3.7527385 0.41563338 -1.3742369 7
15.820971 1.7522469 0.3695623 8
3.9566889 0.43822187 -1.3451315 7
19.878714 2.2016609 0.93269348 8
4.1709404 0.4619512 -1.3094575 6
26.560341 2.9416823 1.8686365 9
4.4255042 0.49014539 -1.2767524 7
40.048145 4.4355202 3.7591512 10
4.6979923 0.52032471 -1.2373866 7
71.352501 7.9026241 8.3951406 35
5.0001373 0.55378866 -1.1919914 6
5.349061 0.59243363 -1.1439302 8
95.107613 10.533614 15.721152 21
5.7412634 0.63587183 -1.0883241 8
2.5928247 0.27983958 -1.5466011 4
6.1925364 0.66835093 -1.0233048 7
2.697417 0.29112807 -1.5243791 5
6.6850972 0.72151226 -0.94498545 5
2.8301871 0.30545774 -1.5135765 6
7.3015518 0.78804529 -0.85881835 7
2.9603055 0.31950122 -1.4955722 8
7.9906936 0.8624233 -0.74982375 15
3.0823348 0.33267167 -1.4674611 7
8.9083862 0.96146846 -0.62655264 5
3.2334437 0.34898064 -1.4479825 6
10.004961 1.0798202 -0.46928149 8
3.3870862 0.36556301 -1.4229816 8
11.36492 1.2265983 -0.26539227 6
3.5600152 0.38422698 -1.3982128 11
13.183438 1.4228683 0 10
3.755753 0.40535265 -1.3749208 7
15.815865 1.7069819 0.3693302 6
3.952246 0.42655984 -1.3432108 7
19.858963 2.1433475 0.93148226 8
4.1684175 0.44989088 -1.3082659 6
26.506962 2.8608558 1.8643116 9
4.4325895 0.47840258 -1.278406 7
39.905949 4.3069878 3.7446599 9
4.6955805 0.50678682 -1.2363737 7
71.482918 7.7150412 8.407917 35
4.9977951 0.53940433 -1.1910692 6
92.023956 9.932004 13.008232 56
5.3565297 0.57812202 -1.1451777 8
5.7352009 0.61899137 -1.0868429 8
2.5902693 0.27133468 -1.5445607 4
6.1887164 0.64827752 -1.0223321 7
2.7000523 0.28283462 -1.5253588 5
6.6833911 0.70009547 -0.94442874 6
2.8311327 0.2965655 -1.5135765 6
7.2921371 0.76386255 -0.8574245 7
2.9559619 0.30964157 -1.492879 8
7.9755392 0.83544999 -0.74815178 14
3.0851626 0.32317552 -1.4683168 7
8.9054098 0.93285537 -0.62613416 4
3.23089 0.33844069 -1.4463556 6
9.9983692 1.0473444 -0.46881562 9
3.3973949 0.35588232 -1.4268358 9
11.366727 1.1906821 -0.26534581 7
3.5612044 0.37304163 -1.3982128 9
13.165963 1.3791549 0 13
3.7532699 0.39316079 -1.3735529 7
15.797285 1.6547899 0.36877313 8
3.9516821 0.41394478 -1.3425707 7
19.863611 2.0807438 0.93138915 8
4.1736083 0.43719184 -1.3094575 6
26.45232 2.770921 1.8598471 9
4.424511 0.4634743 -1.2756498 7
39.766785 4.1656318 3.7303545 9
4.7029214 0.49263823 -1.237893 7
4.9994645 0.52370161 -1.1910692 6
5.3544278 0.56088454 -1.144346 8
95.865242 10.042031 15.836258 20
5.7351623 0.60076702 -1.0864726 8
2.6012852 0.26514605 -1.5506818 4
6.1963935 0.63159138 -1.0233048 7
2.7025664 0.27546954 -1.5263385 7
6.6813803 0.68102556 -0.94387209 4
2.8372202 0.28919467 -1.5163933 6
7.2942424 0.74349385 -0.8574245 7
2.9603713 0.30174729 -1.4946744 9
7.9877458 0.81418192 -0.7490806 16
3.0824566 0.31419131 -1.4666054 7
8.9099655 0.90818274 -0.62627363 4
3.2281873 0.32904547 -1.4447286 8
9.9952936 1.018809 -0.46853617 8
3.3928678 0.34583119 -1.4245232 6
11.358074 1.1577157 -0.26506728 7
3.564086 0.36328328 -1.3989403 9
13.183692 1.3437989 0 19
3.7524838 0.38248643 -1.3728689 7
15.78991 1.6094477 0.3684946 8
3.9547076 0.40309888 -1.3432108 7
19.84152 2.0224237 0.93008482 8
4.1748128 0.42553398 -1.3094575 6
26.420259 2.6929872 1.8570569 14
4.4315257 0.45170042 -1.2773036 7
39.631664 4.0396109 3.7166066 9
4.7004299 0.47910953 -1.2368801 7
75.454208 7.6909623 8.8695002 39
5.0028439 0.50993425 -1.1915303 6
5.3540277 0.54572999 -1.1439302 8
98.818336 10.072441 16.319376 24
5.7446389 0.58554453 -1.0879538 8
2.6003485 0.25725785 -1.5496616 4
6.1864562 0.61203885 -1.0213593 7
2.7051067 0.26762179 -1.5273181 6
6.6853423 0.66139466 -0.94415039 4
2.8310366 0.28008029 -1.5126375 6
7.2944393 0.72165388 -0.85719216 7
2.9541395 0.2922591 -1.4910837 8
7.9861631 0.79008758 -0.74870908 16
3.0851738 0.3052226 -1.4674611 7
8.9086494 0.88135099 -0.62599456 4
3.2291493 0.31946641 -1.4447286 8
9.9903193 0.98836285 -0.46816346 7
3.3883693 0.33521837 -1.4222107 8
11.35549 1.123422 -0.26492804 7
3.5632942 0.35252404 -1.3982128 11
13.181649 1.3040878 0 18
3.7573423 0.37172163 -1.3742369 7
15.760792 1.5592476 0.36770543 8
3.9558861 0.39136398 -1.3432108 7
19.82954 1.9617773 0.92924631 8
4.1741567 0.41295794 -1.3088616 6
26.374525 2.6092863 1.85329 9
4.4328465 0.43855062 -1.2773036 7
39.562222 3.9139721 3.7089894 9
4.6979795 0.46478081 -1.235867 7
5.0023985 0.49489757 -1.1910692 6
5.3517294 0.52945763 -1.1430986 8
97.449455 9.6408749 16.088518 20
5.7404833 0.56791782 -1.0868429 8
2.5924516 0.24962531 -1.5445607 4
6.190002 0.59603089 -1.0216836 7
2.7075338 0.26070651 -1.5282978 6
6.6811361 0.64332181 -0.94331539 4
2.8264868 0.27216041 -1.5098206 6
7.2844396 0.70141351 -0.85579842 7
2.9531155 0.28435338 -1.490186 6
7.9763117 0.76803333 -0.74759436 14
3.0805645 0.29662535 -1.4648942 9
8.9029837 0.8572619 -0.62543654 4
3.2354307 0.3115373 -1.4471691 8
9.9948606 0.96239805 -0.46825662 8
3.3892353 0.32634705 -1.4222107 9
11.34844 1.0927331 -0.26469591 7
3.5642049 0.34319475 -1.3982128 11
13.171082 1.2682341 0 11
3.7526903 0.36134389 -1.3721848 7
3.9550114 0.38082522 -1.3425707 7
19.816711 1.908137 0.92840773 8
4.171423 0.40166336 -1.3076702 6
26.333605 2.5356441 1.8499416 9
4.4358931 0.42712897 -1.2778548 7
39.46133 3.7997036 3.6985855 9
4.6972547 0.4522953 -1.2353605 7
5.001739 0.4816139 -1.1906081 6
5.3492026 0.51507092 -1.142267 8
96.639465 9.3053455 15.950715 20
5.7380376 0.55251151 -1.0861022 8
2.5983193 0.24241212 -1.5476213 4
6.1937079 0.57784659 -1.0220078 7
2.7065592 0.25251046 -1.5273181 6
6.6849871 0.62368083 -0.94359368 5
2.823765 0.26344526 -1.5079428 8
7.2825327 0.67942929 -0.85533381 7
2.9628434 0.27642068 -1.4946744 9
7.9904509 0.74547505 -0.74870908 15
3.0814309 0.28748438 -1.4648942 9
8.9074726 0.8310293 -0.62557608 4
3.2327023 0.30159736 -1.4455421 8
9.9897156 0.93199795 -0.467884 7
3.3975387 0.31697592 -1.4252942 11
11.349642 1.0588733 -0.26464951 7
3.5689173 0.33296478 -1.3996679 9
13.166822 1.2284085 0 11
3.7556174 0.35038313 -1.3728689 7
15.7374 1.4682324 0.3669627 24
3.9523506 0.36873749 -1.3412901 7
19.796427 1.8469224 0.92719662 8
4.1706948 0.38910809 -1.3070744 8
26.317175 2.4552803 1.8482676 9
4.4294839 0.413252 -1.2756498 7
39.375282 3.6735461 3.6894822 9
4.6985755 0.43835711 -1.2353605 7
5.0070214 0.46713382 -1.1915303 6
5.3468118 0.49883479 -1.1414353 8
99.128799 9.2482958 16.356989 24
5.7435656 0.53585023 -1.0868429 8
2.6007402 0.23485564 -1.5486414 4
6.1894984 0.55893266 -1.0210351 7
2.7038236 0.24416441 -1.5253588 6
6.6828637 0.60348517 -0.94303703 5
2.8350871 0.25601795 -1.5135765 6
7.2904515 0.65835243 -0.8560307 7
2.9600906 0.26730621 -1.492879 9
7.9787455 0.72050768 -0.74740857 13
3.0858712 0.27866459 -1.4666054 7
8.8999643 0.80369687 -0.62487847 4
3.2317634 0.29183915 -1.4447286 8
9.9884577 0.90199149 -0.46769768 7
3.3911121 0.30622888 -1.4222107 11
11.342776 1.024291 -0.26441738 6
3.5643232 0.32187045 -1.3974854 11
13.164433 1.1887928 0 10
3.7547686 0.33906829 -1.3721848 7
15.727748 1.4202688 0.36663774 9
3.9534273 0.35700786 -1.3412901 7
19.781921 1.7863743 0.92626494 8
4.1756339 0.37707388 -1.3082659 6
26.248837 2.3703587 1.8429661 9
4.4345202 0.40045217 -1.2767524 7
39.292789 3.5482717 3.6807501 9
4.6979289 0.42423889 -1.2348541 7
5.004509 0.45192409 -1.1906081 6
5.3424234 0.48243889 -1.1401879 8
98.003998 8.8500929 16.166985 20
5.7353425 0.51792079 -1.0849913 8
2.6014256 0.22713852 -1.5486414 4
6.1930957 0.54073834 -1.0213593 7
2.7097471 0.23659642 -1.5282978 6
6.6846247 0.5836553 -0.94303703 4
2.8340747 0.24745184 -1.5126375 8
7.2963309 0.63706529 -0.85649532 7
2.95731 0.25821188 -1.4910837 8
7.9828315 0.69700575 -0.74759436 11
3.0830827 0.2691935 -1.4648942 9
8.900322 0.77711469 -0.62473899 4
3.2344351 0.28240854 -1.4455421 6
9.9910898 0.87235296 -0.46769768 7
3.3993599 0.29680863 -1.4252942 9
11.349751 0.99098182 -0.26451024 7
3.5634065 0.31113204 -1.3967578 11
13.15794 1.1488605 0 10
3.7520134 0.32759991 -1.3708168 7
15.733884 1.3737741 0.36668417 9
3.9544692 0.34527695 -1.3412901 7
19.749319 1.7243743 0.92449474 8
4.1748328 0.3645176 -1.3076702 6
26.221964 2.289521 1.8405943 9
4.433773 0.38712645 -1.276201 7
39.116665 3.4153972 3.6632867 9
4.6972394 0.41013053 -1.2343475 7
5.0116439 0.43758217 -1.1919914 6
5.3555245 0.46760741 -1.1426828 8
5.7348962 0.50073153 -1.0846211 8
2.5952315 0.21883999 -1.5445607 4
6.1887732 0.52186131 -1.0203866 7
2.7069623 0.22826156 -1.5263385 6
6.6883006 0.56398344 -0.94331539 5
2.8365564 0.23918943 -1.5135765 8
7.2882919 0.61457705 -0.85533381 7
2.9634058 0.24988586 -1.4937767 8
7.9729586 0.67231077 -0.74647963 14
3.085669 0.26019558 -1.4657497 7
8.898613 0.75036556 -0.62445998 4
3.2352588 0.27280957 -1.4455421 6
9.9816904 0.84169483 -0.46713868 7
3.4002256 0.28672022 -1.4252942 9
11.340686 0.9562906 -0.26423171 7
3.5661705 0.30071333 -1.3974854 11
13.147341 1.1086347 0 10
3.7567146 0.31678075 -1.3721848 7
15.717968 1.3254 0.36621994 15
3.9498122 0.33306345 -1.3393694 7
19.724489 1.6632454 0.92309731 8
4.1739931 0.3519673 -1.3070744 6
26.186893 2.2081804 1.8376646 9
4.4310713 0.3736451 -1.2750986 7
38.950027 3.2844174 3.6467521 9
4.6965075 0.39602774 -1.2338411 7
5.007103 0.42221832 -1.1906081 6
5.3568883 0.45171359 -1.1426828 8
5.7324395 0.48338154 -1.0838804 8
2.6027277 0.21169589 -1.5486414 4
6.1863604 0.50317484 -1.0197382 7
2.7111034 0.22051077 -1.5282978 6
6.6800742 0.54333162 -0.94192362 4
2.8337336 0.23048502 -1.5116986 8
7.2900834 0.59294742 -0.85533381 7
2.9623528 0.24094641 -1.492879 8
7.988812 0.64977932 -0.74778014 15
3.0864275 0.25103816 -1.4657497 7
8.9008007 0.72395694 -0.62445998 5
3.2378752 0.26335636 -1.4463556 6
9.9881248 0.81239581 -0.46732497 7
3.3992219 0.27647969 -1.4245232 9
11.337495 0.92214835 -0.26409245 7
3.5651901 0.28997889 -1.3967578 11
13.148579 1.069455 0 10
3.757638 0.30563185 -1.3721848 7
15.725817 1.2790776 0.3663128 13
3.9602258 0.32210958 -1.3425707 7
19.699469 1.6022792 0.92169976 8
4.1788249 0.33988962 -1.3082659 6
26.129694 2.1252892 1.8332001 9
4.4359922 0.36080661 -1.276201 7
38.832573 3.1584926 3.6348617 9
4.6995907 0.38224667 -1.2343475 7
5.0083337 0.40735865 -1.1906081 6
5.3582053 0.43581587 -1.1426828 8
5.7397251 0.46684724 -1.0849913 8
2.5963774 0.20479615 -1.5445607 4
6.1895385 0.48821622 -1.0200623 7
2.7046814 0.2133389 -1.5243791 6
6.6813817 0.52701169 -0.94192362 5
2.8307672 0.22328426 -1.5098206 8
7.2816091 0.5743562 -0.85417229 7
2.9611509 0.23356862 -1.4919814 9
7.9804492 0.62947905 -0.74685121 15
3.0852296 0.24335566 -1.4648942 7
8.9005537 0.70205474 -0.62432045 4
3.2330444 0.25501496 -1.4439151 6
9.9781303 0.7870515 -0.46676597 7
3.3980477 0.26803002 -1.4237524 9
11.343701 0.89476448 -0.26418531 7
3.5714595 0.28170833 -1.3989403 11
13.141184 1.0365456 0 10
3.7546263 0.29615611 -1.3708168 7
15.734875 1.24113 0.36645207 12
3.9647787 0.31273243 -1.3438512 7
19.673449 1.5517954 0.92030227 8
4.1739335 0.32923007 -1.3064787 8
26.130831 2.0611386 1.8329211 9
4.4349446 0.34981799 -1.2756498 7
38.659519 3.0493722 3.6179554 9
4.7005105 0.37076521 -1.2343475 7
5.0112543 0.39527595 -1.1910692 6
5.3534031 0.42226386 -1.1414353 8
5.7330112 0.45220646 -1.0835102 8
2.597008 0.19663888 -1.5445607 4
6.1871057 0.468472 -1.0194138 7
2.7035995 0.20470971 -1.5233994 6
6.6790552 0.50572115 -0.94136697 5
2.8332155 0.21452393 -1.5107596 8
7.2932811 0.55222881 -0.85533381 7
2.9654343 0.22453518 -1.4937767 8
7.980402 0.60425586 -0.74666542 16
3.0841761 0.23352602 -1.4640385 7
8.8927679 0.67333794 -0.62362289 4
3.2356517 0.24499537 -1.4447286 6
9.9885225 0.75630569 -0.46713868 7
3.393352 0.25693604 -1.4214399 11
11.342468 0.858823 -0.26409245 7
3.5648963 0.26992494 -1.3960304 11
13.142381 0.99510783 0 10
3.7555382 0.28435987 -1.3708168 7
15.720752 1.1903356 0.36603427 9
3.9638519 0.30013284 -1.3432108 7
19.634401 1.4866672 0.91825265 8
4.1730433 0.3159723 -1.3058829 8
26.085453 1.9751246 1.8292937 9
4.4321876 0.33559403 -1.2745472 7
38.52396 2.9169366 3.6043932 9
4.7074394 0.35643542 -1.235867 7
5.002768 0.37879696 -1.1887636 6
5.3586044 0.40573999 -1.142267 8
5.7383237 0.43449137 -1.0842508 8
2.5992627 0.1895102 -1.5455809 4
6.1844535 0.45090362 -1.0187654 7
2.7041605 0.19715822 -1.5233994 7
6.6804414 0.48706573 -0.94136697 4
2.830281 0.20635356 -1.5088817 8
7.2829075 0.53099108 -0.85393995 7
2.9535723 0.21534264 -1.4874928 6
7.9840441 0.5821104 -0.74685121 15
3.0830133 0.22478008 -1.4631827 7
8.8866539 0.64791894 -0.62306482 4
3.2363231 0.23595779 -1.4447286 6
9.9786406 0.72753489 -0.46657965 7
3.3977375 0.24772638 -1.4229816 9
11.344822 0.82714206 -0.26409245 7
3.5749266 0.26064509 -1.3996679 11
13.13314 0.95752692 0 10
3.7563176 0.27387017 -1.3708168 7
15.722021 1.1462802 0.36598784 9
3.962785 0.28892356 -1.3425707 7
19.610579 1.4297918 0.9169482 11
4.1796222 0.30473295 -1.3076702 6
26.070967 1.9008137 1.8278986 9
4.4331074 0.32321435 -1.2745472 7
38.454494 2.8036871 3.5971477 9
4.6987686 0.34258351 -1.2333345 7
5.0076885 0.36510664 -1.1896859 6
5.351912 0.39020371 -1.1406035 8
5.7375541 0.41832057 -1.0838804 8
2.6083939 0.18239643 -1.5506818 4
6.1897016 0.43282551 -1.0194138 7
2.7082126 0.18937641 -1.5253588 7
6.6818571 0.46724033 -0.94136697 5
2.8308809 0.19795421 -1.5088817 6
7.2785063 0.50896204 -0.85324305 7
2.9648957 0.20732541 -1.492879 8
7.9817638 0.55813855 -0.74647963 15
3.0872736 0.21588291 -1.4648942 7
8.8905277 0.62168539 -0.62320429 4
3.2370093 0.22635342 -1.4447286 6
9.9767694 0.69764268 -0.46639329 7
3.3984578 0.237643 -1.4229816 9
11.345232 0.79333478 -0.26404601 6
3.5645335 0.24925613 -1.3953029 11
13.123954 0.91771501 0 9
3.7589886 0.26285374 -1.3715007 7
15.725353 1.0996224 0.36598784 9
3.961735 0.27703112 -1.3419305 7
19.63068 1.372709 0.91769361 11
4.1728897 0.29179648 -1.3052872 8
26.056593 1.822052 1.8265035 9
4.4340467 0.31005836 -1.2745472 7
38.337498 2.6808155 3.5854433 9
4.7016945 0.32877406 -1.2338411 7
5.0106912 0.3503812 -1.190147 6
5.3510952 0.37418452 -1.1401879 8
5.7387705 0.40129337 -1.0838804 8
2.5969393 0.17339927 -1.5435406 4
6.1890616 0.41324756 -1.0190896 7
2.7105339 0.18098405 -1.5263385 7
6.6813159 0.44611567 -0.94108856 4
2.8314888 0.1890603 -1.5088817 8
7.282052 0.48622721 -0.85347539 7
2.9619658 0.19777234 -1.4910837 8
7.9735432 0.53239852 -0.74555069 14
3.0843291 0.2059426 -1.4631827 7
8.886466 0.59335494 -0.62278581 4
3.2377043 0.21618356 -1.4447286 6
9.9729319 0.66589898 -0.46611381 7
3.3918221 0.22647411 -1.4198983 8
11.345674 0.75755781 -0.26399961 6
3.5690167 0.23830549 -1.3967578 9
13.110807 0.87541687 0 9
3.7541702 0.25066832 -1.3694487 7
15.71277 1.0491515 0.36561647 9
3.960695 0.26445812 -1.3412901 7
19.624928 1.3103688 0.91722775 8
4.1775956 0.27894071 -1.3064787 6
26.034319 1.738328 1.8245504 13
4.4388356 0.29638386 -1.2756498 7
38.278175 2.5558579 3.5791266 9
4.7046347 0.31413144 -1.2343475 7
5.0040002 0.33412027 -1.1883025 6
5.3502922 0.35724241 -1.1397721 8
5.7360811 0.38300174 -1.0831399 8
2.5991299 0.16625684 -1.5445607 4
6.2000389 0.39659384 -1.0207108 7
2.7075484 0.17319198 -1.5243791 7
6.6845117 0.42758381 -0.94136697 5
2.8320055 0.18115306 -1.5088817 8
7.2893281 0.4662717 -0.85417229 7
2.9607229 0.18938664 -1.490186 9
7.974998 0.51013148 -0.74555069 15
3.0866959 0.19744466 -1.4640385 7
8.8841057 0.5682838 -0.6225068 4
3.2364717 0.20702527 -1.4439151 6
9.9707651 0.63779342 -0.46592748 7
3.3979661 0.21735549 -1.4222107 11
11.343754 0.72561848 -0.26390678 6
3.5678089 0.2282197 -1.3960304 9
13.111204 0.83867586 0 9
3.7586064 0.24042434 -1.3708168 7
15.715637 1.0052719 0.36561647 9
3.963309 0.2535184 -1.3419305 7
19.576672 1.2522482 0.91480541 11
4.1745472 0.26703054 -1.3052872 6
25.987303 1.6623129 1.8209231 9
4.437727 0.28386521 -1.2750986 7
38.213615 2.4443855 3.5724382 9
4.6997008 0.30062267 -1.232828 7
5.012682 0.32064295 -1.190147 6
5.3610301 0.34292552 -1.1418511 8
5.739089 0.36710855 -1.0835102 8
2.601301 0.15910228 -1.5455809 4
6.1853633 0.37831277 -1.018117 7
2.6993198 0.16509736 -1.5194807 8
6.6777725 0.40842977 -0.94025356 4
2.8377886 0.17356646 -1.5116986 6
7.2806878 0.44530565 -0.85301077 7
2.9612403 0.18111709 -1.490186 8
7.9883175 0.4885861 -0.74666542 15
3.0854311 0.18871291 -1.4631827 9
8.8856583 0.54346973 -0.6225068 4
3.2406847 0.19820863 -1.4455421 6
9.9725075 0.60994428 -0.46592748 7
3.39856 0.20786469 -1.4222107 9
11.341743 0.6936903 -0.26381391 6
3.5628538 0.21791331 -1.3938479 11
13.107507 0.80168891 0 9
3.7555115 0.22969677 -1.3694487 7
15.704414 0.96052247 0.36529154 9
3.9545453 0.24187018 -1.3387293 7
19.566133 1.1967152 0.91415322 11
4.1790881 0.25560382 -1.3064787 8
25.920153 1.5853434 1.8159006 13
4.4346647 0.27123553 -1.2739959 7
38.059296 2.3278046 3.5573897 9
4.7043843 0.28773227 -1.2338411 7
5.0057883 0.30616692 -1.1883025 6
5.3580618 0.32771286 -1.1410195 8
5.7381306 0.35095885 -1.0831399 8
2.6051965 0.15158369 -1.5476213 4
6.1943393 0.36041841 -1.0194138 7
2.7050197 0.15739191 -1.5224197 7
6.6829095 0.38884595 -0.9408102 4
2.834765 0.16494116 -1.5098206 8
7.2839599 0.42381814 -0.85324305 7
2.9599802 0.17222683 -1.4892882 9
7.981781 0.46442094 -0.74592233 16
3.0877819 0.17966299 -1.4640385 7
8.8852396 0.51698881 -0.62236726 4
3.2376103 0.18838078 -1.4439151 6
9.9662952 0.57989013 -0.4655548 7
3.3991616 0.19778065 -1.4222107 11
11.337765 0.65968925 -0.26367465 4
3.5672042 0.20755824 -1.3953029 11
13.107831 0.76268083 0 9
3.7561765 0.2185536 -1.3694487 7
15.695218 0.91322827 0.365013 8
3.9590287 0.23035659 -1.3400097 7
19.559628 1.1380794 0.91368741 8
4.1760163 0.24298203 -1.3052872 8
25.837105 1.5033352 1.809762 13
4.4335308 0.25796556 -1.2734447 7
37.996456 2.2108288 3.5508873 8
4.6994224 0.27343649 -1.2323215 7
5.0027885 0.2910879 -1.1873803 6
5.3511987 0.31136018 -1.1393563 8
5.7352219 0.33370462 -1.0823992 8
2.5987391 0.14392795 -1.5435406 4
6.1894102 0.34279284 -1.0184411 7
2.7054486 0.14983793 -1.5224197 9
6.6780362 0.36985478 -0.9399752 4
2.8352146 0.15702486 -1.5098206 8
7.2831321 0.40336725 -0.85301077 7
2.9622343 0.16405968 -1.490186 8
7.9850349 0.44224128 -0.74610811 15
3.0882716 0.1710401 -1.4640385 7
8.884656 0.49206567 -0.62222773 4
3.2308266 0.17893533 -1.4406612 8
9.9658804 0.55194801 -0.46546164 7
3.3997006 0.18828823 -1.4222107 11
11.335569 0.62780648 -0.26358181 6
3.5696301 0.19769955 -1.3960304 11
13.113903 0.72629732 0 9
3.756772 0.20806418 -1.3694487 7
15.697706 0.86939806 0.365013 8
3.9577644 0.21919589 -1.3393694 7
19.536797 1.0820212 0.91247624 8
4.1709599 0.23100346 -1.3035001 8
25.811321 1.4295281 1.8076693 13
4.4342341 0.24558458 -1.2734447 7
37.97266 2.1030688 3.5481007 8
4.7020998 0.26041999 -1.232828 7
5.0152407 0.27776292 -1.190147 6
5.3579068 0.29674104 -1.1406035 8
5.7459435 0.31823197 -1.0842508 8
2.5991783 0.13576357 -1.5435406 4
6.1963687 0.32365656 -1.0194138 7
2.7024233 0.14115639 -1.5204604 9
6.6771879 0.3487713 -0.93969685 6
2.839221 0.14830178 -1.5116986 8
7.2863464 0.38058966 -0.85324305 7
2.9609501 0.15466009 -1.4892882 9
7.9784298 0.41673943 -0.7453649 15
3.0815728 0.16096061 -1.4606159 9
8.8881512 0.46425715 -0.62236726 4
3.2368467 0.16907108 -1.4431016 8
9.9655704 0.52053428 -0.46536848 7
3.4002755 0.17760749 -1.4222107 9
11.329498 0.59177667 -0.26339611 5
3.5609312 0.18599907 -1.392393 11
13.102139 0.68436754 0 9
3.7499001 0.19586952 -1.3667126 7
15.686383 0.81935102 0.36468804 6
3.962218 0.20695958 -1.34065 7
19.518152 1.0194968 0.9114514 8
4.175478 0.21809883 -1.3046914 8
25.732004 1.3440665 1.8018098 18
4.433063 0.23155336 -1.2728933 7
37.927372 1.9810705 3.5432701 8
4.7048268 0.24574848 -1.2333345 7
5.0122023 0.26180369 -1.1892248 6
5.3549056 0.27970418 -1.1397721 8
5.748878 0.30028266 -1.0846211 8
2.6047018 0.12875877 -1.5466011 4
6.1873937 0.30586272 -1.0177927 7
2.7045488 0.13369453 -1.52144 9
6.6801138 0.33021948 -0.9399752 5
2.8308051 0.13993578 -1.5070038 8
7.2893658 0.36033675 -0.85347539 7
2.9649408 0.14656654 -1.4910837 9
7.9775739 0.39435709 -0.74517918 15
3.0838158 0.15244292 -1.4614714 9
8.8834343 0.43913665 -0.62194872 4
3.2391312 0.16012065 -1.4439151 6
9.972971 0.49299595 -0.46564797 7
3.3970718 0.16792816 -1.420669 11
11.321122 0.55963939 -0.26316401 3
3.5688798 0.17642118 -1.3953029 11
13.105997 0.64787155 0 9
3.765449 0.18613824 -1.3721848 7
15.688611 0.77553838 0.36468804 6
3.964673 0.19598651 -1.3412901 7
19.510948 0.9644888 0.91098559 8
4.1836982 0.20681362 -1.3070744 6
25.715729 1.271211 1.8004146 18
4.4356136 0.21926661 -1.2734447 7
37.8353 1.8703204 3.5341668 8
4.7016296 0.23241666 -1.2323215 7
5.0031948 0.24732397 -1.1869192 6
5.3595734 0.26494092 -1.1406035 8
5.7398791 0.28374064 -1.0827695 8
2.6084878 0.12164529 -1.5486414 4
6.1901941 0.28867602 -1.018117 7
2.7066531 0.12622316 -1.5224197 6
6.6790314 0.31147265 -0.93969685 5
2.8294208 0.13194837 -1.5060649 8
7.2962961 0.34025845 -0.85417229 7
2.9599826 0.13803704 -1.4883906 9
7.9846115 0.37235764 -0.74573654 15
3.0914526 0.14416806 -1.4648942 7
8.8866186 0.41442218 -0.62208819 4
3.232265 0.15073477 -1.4406612 6
9.9703178 0.46495986 -0.46546164 7
3.3993709 0.15852764 -1.4214399 11
11.320643 0.52793151 -0.26311758 3
3.5656364 0.16628134 -1.3938479 11
13.105758 0.61117923 0 9
3.7603219 0.17536038 -1.3701327 7
15.680728 0.73126143 0.36445594 8
3.9708827 0.18517976 -1.3432108 7
19.495602 0.90916586 0.91014701 8
4.1728168 0.19459684 -1.3035001 8
25.743093 1.200514 1.8020887 13
4.4342871 0.20679036 -1.2728933 7
37.776718 1.7616949 3.5282218 8
4.70226 0.21928711 -1.2323215 7
5.0077538 0.23353364 -1.1878415 6
5.3524761 0.24960954 -1.1389403 8
5.744575 0.26789483 -1.0835102 8
2.6088176 0.11435974 -1.5486414 4
6.1929483 0.27147317 -1.0184411 7
2.7069952 0.11866345 -1.5224197 7
6.6739392 0.29255784 -0.93886179 6
2.8350711 0.12427776 -1.5088817 6
7.2833257 0.31927079 -0.85254616 8
2.9639277 0.12992629 -1.490186 9
7.9816413 0.34988204 -0.7453649 15
3.0882311 0.13537525 -1.4631827 7
8.8877411 0.38960174 -0.62208819 4
3.2363245 0.14186704 -1.4422883 6
9.9715776 0.43711263 -0.46546164 7
3.4016442 0.14911397 -1.4222107 9
11.320076 0.49622521 -0.26307118 4
3.5716708 0.15656723 -1.3960304 11
13.097423 0.57413673 0 9
3.7589197 0.16477545 -1.3694487 7
15.680713 0.68737745 0.36440951 6
3.960027 0.17359115 -1.3393694 7
19.498066 0.85471439 0.91014701 8
4.1886024 0.18361098 -1.3082659 9
25.710468 1.1270404 1.7995775 18
4.4310064 0.19423695 -1.2717909 7
37.769558 1.6556607 3.527107 8
4.6989894 0.20598421 -1.2313086 7
5.0103312 0.21963213 -1.1883025 6
5.3590155 0.23491703 -1.1401879 8
5.7433376 0.25176412 -1.0831399 8
2.598814 0.10665134 -1.5425203 4
6.1936822 0.25417921 -1.0184411 7
2.709058 0.11117558 -1.5233994 7
6.6786885 0.27408311 -0.93941855 6
2.8283494 0.11607111 -1.5051259 6
7.2841887 0.29893193 -0.85254616 7
2.9660645 0.12172274 -1.4910837 8
7.9845762 0.32767475 -0.74555069 16
3.0849848 0.12660304 -1.4614714 9
8.8808222 0.36445528 -0.62153023 5
3.2330565 0.13267967 -1.4406612 6
9.9767504 0.40943053 -0.46564797 8
3.4020472 0.13961479 -1.4222107 11
11.311428 0.46420366 -0.26283905 3
3.5702324 0.14651686 -1.3953029 11
13.096976 0.53747982 0 9
3.7556093 0.15412444 -1.3680805 7
15.676578 0.64334267 0.36427024 6
3.9604962 0.16253267 -1.3393694 7
19.496384 0.80010164 0.90996075 8
4.1776533 0.17144449 -1.3046914 8
25.737436 1.0562248 1.8012516 18
4.4334526 0.18194209 -1.2723421 7
37.704391 1.5473304 3.5206046 8
4.6995459 0.19286215 -1.2313086 7
5.0089803 0.20556086 -1.1878415 6
5.3557415 0.2197914 -1.1393563 8
5.7440181 0.23572569 -1.0831399 8
2.6060119 0.098747447 -1.5466011 4
6.1865616 0.23442224 -1.0171442 7
2.7041667 0.10246674 -1.5204604 5
6.6755576 0.25295135 -0.93886179 6
2.8375232 0.10751991 -1.5098206 6
7.2831068 0.27597272 -0.85231388 7
2.9664323 0.11240456 -1.4910837 9
7.9776073 0.30228883 -0.7448076 16
3.094399 0.11725349 -1.4657497 7
8.8859091 0.33670637 -0.62180924 4
3.2371092 0.12266108 -1.4422883 6
9.9700031 0.37778506 -0.46527532 7
3.4043131 0.1289968 -1.4229816 9
11.316827 0.42881909 -0.26293188 3
3.5688133 0.13523008 -1.3945755 11
13.088607 0.49595571 0 7
3.761709 0.14253931 -1.3701327 7
15.666533 0.5936389 0.36399171 6
3.9572005 0.14994691 -1.338089 7
19.476841 0.73801976 0.9089359 8
4.1781716 0.15831998 -1.3046914 8
25.728664 0.97491491 1.8004146 13
4.4397655 0.16823234 -1.2739959 7
37.6036 1.4248821 3.5107582 8
4.7020617 0.17817132 -1.2318151 7
5.0057116 0.18967727 -1.1869192 6
5.3622694 0.20318803 -1.1406035 8
5.7427664 0.21760587 -1.0827695 8
2.5959785 0.090653837 -1.54048 4
6.1872301 0.21606347 -1.0171442 7
2.7079442 0.094563775 -1.5224197 6
6.6762791 0.23314148 -0.93886179 5
2.8360648 0.099037863 -1.5088817 6
7.2878647 0.2544986 -0.85277849 7
2.9631803 0.10347684 -1.4892882 8
7.9705081 0.27833709 -0.74406445 17
3.0857005 0.10775536 -1.4614714 9
8.8828831 0.31019801 -0.62153023 4
3.239285 0.11311866 -1.4431016 8
9.9650898 0.34798962 -0.4649958 7
3.4065256 0.11895885 -1.4237524 9
11.30806 0.3948873 -0.26269981 4
3.5673373 0.12457453 -1.3938479 11
13.080028 0.45676598 0 9
3.7564807 0.13117959 -1.3680805 7
15.662231 0.54693878 0.36385244 6
3.9670961 0.13853446 -1.3412901 7
19.468962 0.67987317 0.90847009 8
4.1767149 0.14585453 -1.3040957 8
25.699543 0.89745045 1.7981824 13
4.4344811 0.15485595 -1.2723421 7
37.50816 1.3098177 3.5014687 8
4.6948357 0.16394775 -1.229789 7
5.0081973 0.17489062 -1.1873803 6
5.3569841 0.18707056 -1.1393563 8
5.7374945 0.20035832 -1.0816586 8
2.6013799 0.083569057 -1.5435406 4
6.1917548 0.19890948 -1.0177927 7
2.7099404 0.087056555 -1.5233994 6
6.6749249 0.21443127 -0.93858349 6
2.8416257 0.091286927 -1.5116986 6
7.2825909 0.23395246 -0.8520816 8
2.968817 0.095372938 -1.4919814 8
7.9831972 0.25645939 -0.74517918 17
3.0932167 0.099369265 -1.4648942 9
8.8837147 0.28538841 -0.62153023 5
3.2377622 0.10401277 -1.4422883 6
9.9600334 0.31996503 -0.46471632 7
3.3957772 0.10908899 -1.4191273 9
11.30512 0.36317581 -0.26260695 4
3.5695333 0.11467089 -1.3945755 11
13.085251 0.42036232 0 9
3.7549543 0.12062752 -1.3673965 7
15.655704 0.50293785 0.36366677 6
3.9674675 0.12745447 -1.3412901 7
19.458805 0.62511212 0.90791112 8
4.171381 0.13400519 -1.3023084 8
25.689985 0.82528812 1.7973453 13
4.4368176 0.1425323 -1.2728933 7
37.424095 1.2022452 3.4932945 8
4.7010765 0.1510216 -1.2313086 7
5.0047765 0.16077793 -1.1864581 6
5.3555303 0.17204586 -1.1389403 8
5.7439246 0.18452299 -1.0827695 8
2.5947382 0.075651422 -1.5394597 4
6.1903448 0.18048386 -1.0174685 7
2.7101867 0.079017408 -1.5233994 6
6.6755314 0.19462983 -0.93858349 6
2.8330579 0.082599804 -1.5070038 8
7.2812662 0.21229047 -0.85184926 8
2.9637272 0.086409561 -1.4892882 9
7.9799418 0.23266083 -0.7448076 17
3.0880768 0.090035059 -1.4623271 9
8.8905039 0.25920892 -0.62194872 5
3.2344034 0.094301313 -1.4406612 8
9.9649324 0.29053465 -0.46490264 7
3.4071543 0.099337988 -1.4237524 9
11.316141 0.32993007 -0.26283905 3
3.5642712 0.10391884 -1.392393 11
13.08444 0.38148609 0 9
3.7552955 0.10948829 -1.3673965 7
15.65113 0.45631975 0.36352751 6
3.962146 0.11551917 -1.3393694 7
19.454584 0.5672121 0.90763158 8
4.1736689 0.12168626 -1.3029041 6
25.662407 0.7482056 1.7952527 13
4.4352999 0.12931429 -1.2723421 7
37.290154 1.0872208 3.4804754 25
4.7015038 0.13707566 -1.2313086 7
5.0071764 0.14598776 -1.1869192 6
5.3521066 0.15604444 -1.1381087 8
5.7444468 0.1674834 -1.0827695 8
2.6035376 0.068631113 -1.5445607 4
6.1868787 0.16309056 -1.01682 7
2.7103968 0.071448006 -1.5233994 4
6.6701097 0.17582887 -0.93774843 5
2.8368082 0.0747803 -1.5088817 6
7.2818308 0.19195428 -0.85184926 8
2.9639568 0.078132033 -1.4892882 9
7.9765782 0.21026833 -0.74443597 18
3.0865092 0.081362598 -1.4614714 9
8.883215 0.23416793 -0.62139064 5
3.2346542 0.085267805 -1.4406612 8
9.9696989 0.26280841 -0.46508896 7
3.3981941 0.08957883 -1.4198983 9
11.311023 0.29816666 -0.26269981 4
3.5682721 0.094062217 -1.3938479 11
13.083455 0.34488928 0 9
3.7555866 0.098999962 -1.3673965 7
15.646348 0.41244894 0.36338824 6
3.9605591 0.10440318 -1.3387293 7
19.446104 0.5126133 0.90716577 8
4.1759014 0.11007976 -1.3035001 8
25.628494 0.67558551 1.7927413 13
4.4356437 0.11692674 -1.2723421 7
37.34082 0.98433077 3.4849343 17
4.6979995 0.12384264 -1.2302955 7
5.0036736 0.13190043 -1.1859969 6
5.3505654 0.14104475 -1.1376928 8
5.7429271 0.15138768 -1.0823992 8
2.6019993 0.061320323 -1.5435406 4
6.1853371 0.14576748 -1.0164957 7
2.7053561 0.063756101 -1.5204604 5
6.6765141 0.15734287 -0.93858349 6
2.8352404 0.06681703 -1.5079428 6
7.278367 0.17152649 -0.8513847 8
2.9623771 0.069813214 -1.4883906 8
7.9771342 0.18799408 -0.74443597 18
3.0885315 0.072786242 -1.4623271 9
8.8878241 0.20945597 -0.62166971 5
3.2348797 0.076235175 -1.4406612 8
9.9604073 0.23473312 -0.46462315 7
3.4002757 0.080132999 -1.420669 11
11.305813 0.2664398 -0.26256052 4
3.5666583 0.084054075 -1.3931205 11
13.084368 0.30835429 0 9
3.750212 0.088379815 -1.3653444 7
15.635446 0.36847457 0.36310971 8
3.9570467 0.093254209 -1.3374487 7
19.437473 0.45807555 0.9066999 8
4.1781006 0.098463707 -1.3040957 8
25.632277 0.60406607 1.7928809 13
4.4321084 0.10444981 -1.2712395 7
37.30759 0.87921369 3.4815903 25
4.6983271 0.11072368 -1.2302955 7
5.0040221 0.11792789 -1.1859969 6
5.3587618 0.12628789 -1.1393563 8
5.7492218 0.13548972 -1.0835102 8
2.6056094 0.053671092 -1.5455809 4
6.1896887 0.12749699 -1.0171442 7
2.7055335 0.055729356 -1.5204604 8
6.6710114 0.13741142 -0.93774843 6
2.840723 0.058514029 -1.5107596 8
7.284802 0.15005444 -0.8520816 8
2.9661448 0.061097503 -1.490186 8
7.975666 0.16428506 -0.74425024 16
3.094156 0.063734315 -1.4648942 7
8.8864117 0.18304487 -0.62153023 5
3.240572 0.066750228 -1.4431016 8
9.9670525 0.20530421 -0.46490264 7
3.3912733 0.069854423 -1.4168148 8
11.312552 0.2330192 -0.26269981 3
3.5687547 0.073510237 -1.3938479 9
13.085225 0.26953322 0 9
3.7579734 0.077407815 -1.3680805 7
15.628473 0.32191977 0.36292401 6
3.9592009 0.081552751 -1.338089 7
19.424767 0.40011692 0.9060477 8
4.1802831 0.086106673 -1.3046914 8
25.612013 0.52756357 1.7913462 9
4.4343209 0.091339417 -1.2717909 7
37.302067 0.76835865 3.4808466 8
4.6986351 0.096783832 -1.2302955 7
5.0043502 0.10308104 -1.1859969 6
5.3552008 0.11030796 -1.1385245 8
5.7397742 0.11822952 -1.0816586 8
2.6092052 0.045544375 -1.5476213 4
6.1861124 0.10798024 -1.0164957 7
2.7074387 0.047259066 -1.52144 7
6.6753707 0.11652038 -0.93830508 6
2.8373613 0.0495269 -1.5088817 6
7.2852378 0.12716576 -0.8520816 8
2.964535 0.051746752 -1.4892882 8
7.9701705 0.13912146 -0.74369293 17
3.0889187 0.0539179 -1.4623271 9
8.8829527 0.15505432 -0.62125117 5
3.2334585 0.056440882 -1.4398478 8
9.9676485 0.17398797 -0.46490264 8
3.4007018 0.059360158 -1.420669 8
11.305231 0.19733584 -0.26251411 4
3.5652425 0.062232263 -1.392393 11
13.092007 0.22852448 0 10
3.758198 0.06560035 -1.3680805 7
15.631406 0.27285036 0.36297044 6
3.9632261 0.06917917 -1.3393694 7
19.421932 0.33901501 0.90586144 8
4.1786242 0.072939001 -1.3040957 6
25.611551 0.44705647 1.7912067 9
4.4365087 0.077440441 -1.2723421 7
37.272446 0.65060049 3.4778745 8
4.7027855 0.082088374 -1.2313086 7
5.0085411 0.087425426 -1.1869192 6
5.3555207 0.093482047 -1.1385245 8
5.7401171 0.10019528 -1.0816586 8
2.6076019 0.038231906 -1.5466011 4
6.1903362 0.090760916 -1.0171442 7
2.7127905 0.03977415 -1.5243791 6
6.6717095 0.097818673 -0.93774843 6
2.833957 0.041550659 -1.5070038 8
7.2875504 0.10684796 -0.85231388 8
2.964668 0.043467104 -1.4892882 8
7.9745097 0.11691995 -0.74406445 18
3.0872495 0.04526436 -1.4614714 9
8.8833513 0.13024512 -0.62125117 5
3.240911 0.0475173 -1.4431016 6
9.9700918 0.1461786 -0.4649958 8
3.3990092 0.049835287 -1.4198983 9
11.305738 0.16576146 -0.26251411 4
3.5672653 0.052302212 -1.3931205 11
13.094593 0.19198914 0 10
3.7527292 0.055021431 -1.3660284 7
15.62611 0.2291055 0.36283118 8
3.95772 0.058026947 -1.3374487 7
19.410816 0.28459579 0.90530235 8
4.1749935 0.061212547 -1.3029041 8
25.58876 0.375175 1.7895325 13
4.4347849 0.065021537 -1.2717909 7
37.27013 0.54644388 3.4775028 8
4.6991267 0.068897232 -1.2302955 7
5.0068197 0.073408544 -1.1864581 6
5.3538051 0.078495942 -1.1381087 8
5.7325134 0.08404845 -1.0801773 8
2.599098 0.030849569 -1.5415001 4
6.1925387 0.073501326 -1.0174685 7
2.7111473 0.03217952 -1.5233994 5
6.6640348 0.079097673 -0.93663508 6
2.8375936 0.033680353 -1.5088817 6
7.2838473 0.086454436 -0.85184926 7
2.9665649 0.035211157 -1.490186 9
7.9728136 0.094632007 -0.74387866 17
3.0927866 0.036709324 -1.4640385 9
8.8816853 0.10541971 -0.62111163 5
3.2446849 0.038512256 -1.4447286 6
9.9584751 0.1182005 -0.4644368 7
3.4028256 0.040389284 -1.4214399 9
11.310155 0.13424404 -0.26260695 3
3.5636716 0.042298418 -1.3916656 11
13.089078 0.15535867 0 10
3.7585056 0.044610966 -1.3680805 7
15.630687 0.18552588 0.36292401 6
3.9578664 0.046977248 -1.3374487 7
19.409538 0.23037834 0.90520924 8
4.1808753 0.049624216 -1.3046914 6
25.569756 0.30349603 1.7881374 9
4.4291821 0.052571449 -1.2701371 7
37.261555 0.44226992 3.4765739 8
4.6973662 0.055754621 -1.229789 7
5.0070052 0.059429832 -1.1864581 6
5.3559594 0.063571684 -1.1385245 8
5.7346916 0.068066984 -1.0805477 8
2.6094952 0.02368428 -1.5476213 4
6.1868 0.056152586 -1.0164957 7
2.7077396 0.024575965 -1.52144 4
6.6681905 0.060521781 -0.93719172 6
2.8341448 0.025723245 -1.5070038 8
7.2781019 0.066057451 -0.85115236 8
2.9630775 0.026893463 -1.4883906 9
7.9750381 0.072382979 -0.74406445 17
3.0856466 0.028005922 -1.4606159 9
8.8779554 0.080578029 -0.62083262 5
3.2338178 0.029350754 -1.4398478 6
9.9707527 0.090496473 -0.4649958 8
3.4029253 0.030885605 -1.4214399 9
11.320483 0.10274688 -0.26283905 3
3.561913 0.032328606 -1.390938 12
13.077462 0.11869357 0 9
3.7510986 0.034045693 -1.3653444 7
15.621147 0.14178054 0.36269191 8
3.9560881 0.035906214 -1.3368084 7
19.420095 0.17626052 0.90567511 8
4.1695428 0.03784357 -1.3011169 8
25.562525 0.23201039 1.7875794 9
4.4331565 0.040236183 -1.2712395 7
37.270611 0.33827522 3.4773171 8
4.6955686 0.042617887 -1.2292825 7
5.0071516 0.045445874 -1.1864581 6
5.3580723 0.048630897 -1.1389403 8
5.7387896 0.052086361 -1.0812883 8
2.6026731 0.01589885 -1.5435406 4
6.1889124 0.037805974 -1.01682 7
2.7060568 0.016530387 -1.5204604 4
6.6683407 0.040734641 -0.93719172 6
2.8377407 0.017334798 -1.5088817 6
7.280252 0.044472598 -0.8513847 8
2.9631443 0.018100847 -1.4883906 9
7.9732265 0.048705745 -0.74387866 17
3.0857162 0.018849596 -1.4606159 9
8.8741646 0.054209273 -0.62055361 5
3.2375448 0.019777067 -1.4414747 6
9.9649849 0.060872726 -0.46471632 7
3.3993111 0.020765243 -1.4198983 11
11.31674 0.069130138 -0.26274621 5
3.5675821 0.021793153 -1.3931205 11
13.087756 0.079948679 0 10
3.7568212 0.02294915 -1.3673965 7
15.6175 0.095402032 0.36259907 8
3.9637558 0.024213245 -1.3393694 7
19.41254 0.11858465 0.90530235 8
4.1715465 0.025482567 -1.3017128 8
25.555122 0.1561076 1.7870214 9
4.4294114 0.027057776 -1.2701371 7
37.243572 0.2275084 3.4747159 8
4.6918049 0.028660651 -1.2282696 7
5.0072646 0.030587688 -1.1864581 6
5.3542809 0.03270749 -1.1381087 8
5.7290921 0.034997087 -1.0794368 8
2.604429 0.0081836171 -1.5445607 4
6.1811032 0.019422216 -1.015523 7
2.7113249 0.0085195042 -1.5233994 6
6.6723938 0.020965945 -0.93774843 6
2.8342476 0.0089057516 -1.5070038 6
7.2803516 0.022876266 -0.8513847 8
2.9631851 0.0093108974 -1.4883906 9
7.9773183 0.02506627 -0.74425024 17
3.0911815 0.0097130872 -1.4631827 7
8.8842621 0.027916061 -0.62125117 5
3.2375891 0.010173128 -1.4414747 6
9.9691172 0.031324886 -0.46490264 7
3.4012029 0.010687235 -1.420669 11
11.308896 0.035534728 -0.26256052 5
3.563905 0.011198475 -1.3916656 11
13.091936 0.041137382 0 10
3.7549934 0.011798912 -1.3667126 7
15.613716 0.049061302 0.36250624 8
3.9562314 0.012431241 -1.3368084 7
19.418802 0.06101761 0.90558189 8
4.1716037 0.013107982 -1.3017128 8
25.563452 0.080325283 1.7875794 13
4.429472 0.013918254 -1.2701371 7
37.234123 0.11699678 3.4737868 8
4.6957388 0.014754916 -1.2292825 7
5.0053868 0.015727889 -1.1859969 6
5.350441 0.016812116 -1.137277 8
5.7331014 0.018014507 -1.0801773 8
2.5992811 0.00045441775 -1.5415001 4
6.1870546 0.001081648 -1.0164957 7
2.7078512 0.00047339845 -1.52144 5
6.6763873 0.0011671954 -0.93830508 6
2.8360276 0.0004958068 -1.5079428 6
7.2784019 0.0012724422 -0.85115236 8
2.9685612 0.00051897689 -1.4910837 8
7.9693933 0.0013932444 -0.74350715 18
3.0930045 0.00054073264 -1.4640385 7
8.8763256 0.0015517983 -0.62069315 5
3.2357779 0.0005656929 -1.4406612 6
9.9671688 0.0017425043 -0.46480948 8
3.3975289 0.00059397094 -1.4191273 13
11.314952 0.0019781296 -0.26269981 5
3.5695117 0.0006240377 -1.3938479 11
13.086 0.0022877522 0 10
3.7568913 0.00065679627 -1.3673965 7
15.617792 0.002730371 0.36259907 8
3.9562509 0.00069164915 -1.3368084 7
19.40691 0.0033928014 0.90502292 8
4.1754422 0.00072996918 -1.3029041 8
25.543627 0.0044656489 1.7861842 13
4.4294939 0.0007743836 -1.2701371 7
37.204437 0.0065042432 3.4710002 8
4.6996317 0.00082161027 -1.2302955 7
5.0034657 0.00087472785 -1.1855358 6
5.3465552 0.00093470828 -1.1364454 8
5.7370605 0.0010029782 -1.080918 8
2.6044319 -0.0072729639 -1.5445607 4
6.1830835 -0.017266469 -1.0158472 7
2.7060969 -0.0075568673 -1.5204604 7
6.6684394 -0.018621841 -0.93719172 6
2.8360167 -0.0079196719 -1.5079428 8
7.2803597 -0.020330651 -0.8513847 8
2.9614007 -0.008269812 -1.4874928 8
7.9753356 -0.022271395 -0.74406445 15
3.0893772 -0.0086271903 -1.4623271 7
8.8742962 -0.024781773 -0.62055361 5
3.2394197 -0.0090461895 -1.4422883 6
9.9691286 -0.027839128 -0.46490264 9
3.4012067 -0.0094979843 -1.420669 11
11.300912 -0.031558178 -0.26237485 4
3.5713608 -0.009973146 -1.3945755 9
13.09395 -0.0365653 0 10
3.7512386 -0.01047546 -1.3653444 7
15.615732 -0.043607458 0.36255264 8
3.9600253 -0.011058505 -1.338089 7
19.404839 -0.054188665 0.9049297 8
4.175426 -0.011660019 -1.3029041 8
25.545523 -0.071336739 1.7863238 9
4.4294767 -0.012369463 -1.2701371 7
37.226196 -0.10395542 3.4730439 8
4.6996136 -0.01312383 -1.2302955 7
5.0034461 -0.013972293 -1.1855358 6
5.3484912 -0.014935842 -1.1368612 8
5.7370381 -0.016020874 -1.080918 8
2.6026812 -0.014536264 -1.5435406 4
6.1849837 -0.034543827 -1.0161715 7
2.7025781 -0.015094201 -1.518501 8
6.6663809 -0.037232481 -0.93691337 7
2.8377492 -0.015849147 -1.5088817 6
7.2782884 -0.040650055 -0.85115236 8
2.9631534 -0.016549543 -1.4883906 8
7.9712601 -0.044520378 -0.74369293 17
3.0893409 -0.017254313 -1.4623271 7
8.8721972 -0.049552213 -0.62041408 5
3.2393818 -0.01809231 -1.4422883 6
9.9630175 -0.055644564 -0.46462315 8
3.3937852 -0.01895467 -1.4175857 11
11.308776 -0.063160777 -0.26256052 5
3.5694559 -0.019935811 -1.3938479 9
13.083797 -0.073074467 0 9
3.7474358 -0.020929847 -1.3639764 7
15.617548 -0.08722575 0.36259907 8
3.9542944 -0.022085177 -1.3361683 7
19.414598 -0.1084327 0.90539557 8
