# .PCD v0.7 - Point Cloud Data file format
VERSION 0.7
FIELDS x y z
SIZE 4 4 4
TYPE F F F
COUNT 1 1 1
WIDTH 1459
HEIGHT 1
VIEWPOINT 0 0 0 1 0 0 0
POINTS 1459
DATA ascii
-1.4003147 -13.979967 -1.9745882
-0.69454157 -6.933919 -2.1744857
-0.75514394 -7.5389395 -2.1725738
-0.82186681 -8.2050638 -2.1587152
-0.90484083 -9.0334301 -2.1511183
-1.4346334 -13.859016 -1.9581656
-0.71694112 -6.92588 -2.1726985
-0.781129 -7.5459557 -2.1753302
-0.84907061 -8.2022934 -2.1587152
-0.93479109 -9.0303802 -2.1511183
-1.3303624 -12.469116 -2.0602276
-1.4640884 -13.722493 -1.9395165
-0.73889881 -6.9254923 -2.1732943
-0.80503577 -7.5453758 -2.1758814
-0.87524563 -8.203433 -2.1597285
-0.96336317 -9.0293341 -2.1515794
-1.191648 -11.168983 -2.1162887
-1.3675895 -12.44722 -2.0573094
-1.5058945 -13.706014 -1.9378464
-0.76148653 -6.9307275 -2.1756773
-0.82894659 -7.5447206 -2.1764326
-0.99215031 -9.0301313 -2.1525016
-1.5493897 -13.705152 -1.9384031
-0.78368479 -6.9320965 -2.1768689
-0.85242838 -7.5401688 -2.1758814
-0.9276408 -8.2054615 -2.1617544
-1.0207323 -9.028904 -2.1529627
-1.4413229 -12.381281 -2.0479066
-1.5870433 -13.633052 -1.9289393
-0.8066684 -6.9294591 -2.1768689
-0.87809503 -7.5430298 -2.1775353
-0.95507008 -8.2042618 -2.1622608
-1.050668 -9.0254688 -2.1529627
-1.3008516 -11.174602 -2.1196213
-1.475096 -12.315688 -2.0378551
-1.6237632 -13.556922 -1.918919
-0.78685766 -6.5695338 -2.235697
-0.82986933 -6.9286418 -2.1774645
-0.90287447 -7.538167 -2.1769838
-0.98250055 -8.2029715 -2.1627672
-1.0815167 -9.029665 -2.1548071
-1.2028004 -10.042272 -2.149807
-1.3381335 -11.172177 -2.1199918
-1.5118535 -12.295322 -2.0352612
-1.65982 -13.498677 -1.9114034
-0.85186553 -6.9278951 -2.1780603
-0.9270215 -7.5391097 -2.1780865
-1.0075581 -8.1940832 -2.1612477
-1.1096419 -9.024292 -2.154346
-1.2345825 -10.040385 -2.150223
-1.3727461 -11.164017 -2.119251
-1.5477548 -12.268974 -2.0316944
-1.7009788 -13.483573 -1.9100118
-0.87410337 -6.9289732 -2.1792519
-0.95118248 -7.5399756 -2.179189
-1.0342637 -8.1985559 -2.163274
-1.13823 -9.0226917 -2.1548071
-1.4097793 -11.17525 -2.1222136
-1.5837601 -12.244479 -2.0284522
-1.7377415 -13.43495 -1.9038881
-0.81509316 -6.3017058 -2.3127401
-0.83950245 -6.4904208 -2.2113681
-0.89611226 -6.9280868 -2.1798475
-0.97486562 -7.5369501 -2.179189
-1.0597672 -8.193347 -2.1627672
-1.1673193 -9.0248613 -2.1561904
-1.2983959 -10.03825 -2.1514704
-1.6224792 -12.241399 -2.0287764
-1.7744758 -13.388192 -1.8980429
-0.85864401 -6.4783592 -2.2081668
-0.91787332 -6.9252367 -2.1798475
-0.99853909 -7.5338497 -2.179189
-1.0872821 -8.2034035 -2.1663129
-1.1951549 -9.0172911 -2.1552682
-1.4804846 -11.170067 -2.1229541
-1.6646596 -12.247685 -2.0307219
-1.8201971 -13.392048 -1.8994347
-0.94057637 -6.9202633 -2.1792519
-1.0229992 -7.5266871 -2.1780865
-1.113698 -8.1940012 -2.1647933
-1.2258373 -9.019063 -2.1566515
-1.3645108 -10.039349 -2.1535494
-1.7058102 -12.246006 -2.0313702
-1.8525745 -13.299627 -1.8871874
-0.96483678 -6.9265604 -2.1822305
-1.0484837 -7.5270615 -2.179189
-1.1416653 -8.1960125 -2.1663129
-1.2565447 -9.020731 -2.158035
-1.398605 -10.040581 -2.1547968
-1.7381477 -12.197604 -2.0242369
-1.8770236 -13.172177 -1.8699299
-0.89243561 -6.2627449 -2.3024795
-0.91764367 -6.4396448 -2.1979232
-0.98578393 -6.9178247 -2.1804433
-1.0723962 -7.5256343 -2.1797404
-1.1676806 -8.1943007 -2.1668193
-1.2848773 -9.0167398 -2.158035
-1.4304167 -10.038074 -2.1552126
-1.7855653 -12.254575 -2.0346127
-1.9183967 -13.166215 -1.8699299
-0.93677747 -6.4292302 -2.1953623
-1.0077877 -6.9165835 -2.1810391
-1.096311 -7.5241303 -2.1802917
-1.1942552 -8.1963358 -2.1683388
-1.3143207 -9.0203609 -2.1598792
-1.4625099 -10.037403 -2.1560445
-1.825901 -12.246635 -2.0342884
-1.968763 -13.204836 -1.8763318
-0.93064249 -6.241981 -2.2970073
-0.95865065 -6.4298368 -2.1966429
-1.0315624 -6.918869 -2.1828263
-1.1218222 -7.5242572 -2.1813941
-1.221428 -8.1923304 -2.1683388
-1.3439384 -9.0140276 -2.1594181
-1.4952092 -10.028628 -2.1552126
-1.665067 -11.167893 -2.1273978
-1.8599578 -12.197592 -2.0271552
-2.0038834 -13.141455 -1.8682599
-0.8891232 -5.8308644 -2.3031955
-0.97796839 -6.4135103 -2.1921611
-1.0545008 -6.91541 -2.1828263
-1.1458982 -7.5147934 -2.1797404
-1.249755 -8.1958857 -2.1703649
-1.374703 -9.0152941 -2.1608016
-1.7023885 -11.164253 -2.127768
-1.8876479 -12.137417 -2.0180764
-2.0480394 -13.16872 -1.8729917
-0.90699208 -5.8318825 -2.3046505
-1.0747207 -6.9103637 -2.1822305
-1.1687804 -7.5151591 -2.1808429
-1.2737693 -8.1902294 -2.1698585
-1.4014454 -9.0111752 -2.1608016
-1.5590926 -10.024835 -2.1564603
-1.930365 -12.146683 -2.0206702
-2.0885892 -13.142297 -1.8702083
-0.9804883 -6.169652 -2.2737498
-1.0185434 -6.4091105 -2.1928012
-1.0979304 -6.9086475 -2.1828263
-1.1933937 -7.5093441 -2.1802917
-1.3018333 -8.1916924 -2.1713779
-1.4316255 -9.0084 -2.1612628
-1.5938632 -10.029269 -2.1585395
-1.7737353 -11.161101 -2.1292493
-0.94523036 -5.8295817 -2.3061054
-1.0392799 -6.4096193 -2.1940818
-1.1199349 -6.9070487 -2.1834221
-1.217595 -7.5093536 -2.1813941
-1.326943 -8.1837425 -2.1703649
-1.4599196 -9.0038576 -2.1612628
-1.6253638 -10.024213 -2.1585395
-2.1675682 -13.10742 -1.8671465
-0.9653632 -5.8376112 -2.3104703
-1.0115681 -6.1170149 -2.256649
-1.0587925 -6.4025846 -2.1928012
-1.1413167 -6.9016128 -2.1828263
-1.2408659 -7.5035939 -2.1808429
-1.3529615 -8.1814423 -2.1708715
-1.4888332 -9.003067 -2.162185
-1.6574852 -10.022917 -2.1593711
-0.98697603 -5.8415542 -2.3133802
-1.0297835 -6.0949159 -2.2498085
-1.0798727 -6.3913765 -2.1902404
-1.1663551 -6.903234 -2.1846135
-1.2683322 -7.5067997 -2.183048
-1.3821566 -8.1804857 -2.1718843
-1.5202509 -8.9978151 -2.162185
-1.6934397 -10.022858 -2.1606185
-2.2561314 -13.102515 -1.8685381
-1.0072193 -5.8494406 -2.317745
-1.0447797 -6.0675726 -2.240916
-1.1009107 -6.3935542 -2.1921611
-1.1873881 -6.8957729 -2.1834221
-1.29093 -7.4970942 -2.1813941
-1.4071923 -8.1722898 -2.1708715
-1.5495011 -8.9987488 -2.1635685
-1.7249182 -10.017488 -2.1606185
-1.0243036 -5.8389077 -2.3148353
-1.0618882 -6.053154 -2.2368119
-1.2093761 -6.8938894 -2.1840177
-1.3144768 -7.4930019 -2.1813941
-1.4352 -8.1811686 -2.174417
-1.5770916 -8.9900026 -2.1626461
-1.7546911 -10.002385 -2.1585395
-1.9421853 -11.071172 -2.1177697
-2.1506989 -12.037446 -2.0089974
-2.3432899 -13.115376 -1.872435
-1.0426422 -5.8356605 -2.3148353
-1.0766026 -6.0257368 -2.2279193
-1.1410612 -6.3865108 -2.1921611
-1.2316998 -6.8938146 -2.1852093
-1.3390249 -7.4945126 -2.183048
-1.4602146 -8.1728106 -2.173404
-1.6056693 -8.9869194 -2.1631072
-1.7881706 -10.008377 -2.1610341
-1.9717721 -11.035994 -2.1122153
-2.1807058 -11.975883 -1.9999188
-1.0938855 -6.0073419 -2.2224469
-1.1629125 -6.3864198 -2.1934416
-1.254554 -6.8896923 -2.1852093
-1.3645594 -7.493814 -2.1841505
-1.487309 -8.167923 -2.173404
-1.6361599 -8.9853754 -2.1640296
-1.8220513 -10.006244 -2.1618659
-2.0016685 -10.992656 -2.1051795
-2.2193265 -11.962765 -1.9989462
-1.0806427 -5.8249536 -2.3133802
-1.1110575 -5.9888983 -2.2169745
-1.1851205 -6.3881173 -2.1953623
-1.2777419 -6.8873715 -2.1858051
-1.3887004 -7.485467 -2.183048
-1.5154445 -8.1686525 -2.1749234
-1.6670117 -8.9856396 -2.1654127
-1.8555791 -10.002069 -2.1622818
-2.0338075 -10.962768 -2.1007359
-2.2554321 -11.947976 -1.9976492
-1.0992821 -5.8233614 -2.3141077
-1.1281232 -5.9761443 -2.2135544
-1.205183 -6.3843627 -2.1953623
-1.298664 -6.879571 -2.1846135
-1.4125658 -7.4829569 -2.1835992
-1.5400224 -8.1581488 -2.173404
-1.694149 -8.9746218 -2.1640296
-1.8877172 -10.000034 -2.1631134
-2.2862582 -11.905945 -1.9918127
-1.1465381 -5.9707255 -2.2128704
-1.2241625 -6.3749628 -2.1934416
-1.3202707 -6.8754573 -2.1846135
-1.4367927 -7.4822588 -2.1847019
-1.5656449 -8.1532698 -2.173404
-1.7241708 -8.9788122 -2.1663351
-1.9183868 -9.9902134 -2.1622818
-2.0996826 -10.934332 -2.0977736
-2.3187337 -11.873523 -1.9875976
-1.1627687 -5.9541817 -2.208082
-1.2460001 -6.3803835 -2.1966429
-1.3425963 -6.8750229 -2.1858051
-1.5931057 -8.1578045 -2.1759362
-1.7508783 -8.9657097 -2.1644907
-1.9505126 -9.9879761 -2.1631134
-2.1283731 -10.898746 -2.0922186
-2.3554027 -11.852218 -1.985328
-1.1522266 -5.7979217 -2.3082879
-1.1795769 -5.9355464 -2.2026098
-1.3650155 -6.8686604 -2.1852093
-1.4847065 -7.4709377 -2.1841505
-1.6197723 -8.1505785 -2.1754298
-1.7813591 -8.9636717 -2.1654127
-1.9820985 -9.9737778 -2.1614501
-2.3931291 -11.836605 -1.9840311
-1.1666476 -5.7703304 -2.2988307
-1.2879136 -6.370122 -2.1960025
-1.3877854 -6.8640962 -2.1852093
-1.5106162 -7.4716263 -2.1858044
-1.6479424 -8.1508522 -2.1769495
-1.8122312 -8.963438 -2.1667962
-2.0163252 -9.9729023 -2.1626976
-2.1967151 -10.865126 -2.0885158
-2.4255362 -11.805831 -1.9801402
-1.2171254 -5.9241238 -2.2012417
-1.3083005 -6.3679008 -2.1966429
-1.673151 -8.1437407 -2.1764431
-1.8411644 -8.9615135 -2.1677184
-2.0476453 -9.9665194 -2.1626976
-2.2347927 -10.877423 -2.0922186
-2.4610007 -11.790424 -1.9788431
-1.1971704 -5.7355313 -2.2879186
-1.2364988 -5.9239502 -2.2026098
-1.3271382 -6.3581953 -2.1947222
-1.4312761 -6.85711 -2.1858051
-1.5567459 -7.4582243 -2.1847019
-1.6987275 -8.1384439 -2.1764431
-1.8689115 -8.9537802 -2.1672573
-2.0801454 -9.9657822 -2.1639452
-2.4976194 -11.780704 -1.978519
-1.1482549 -5.4160585 -2.3125379
-1.2539337 -5.9145212 -2.2005577
-1.347499 -6.3558478 -2.1953623
-1.4536028 -6.8563156 -2.1869965
-1.5809659 -7.457058 -2.1858044
-1.7246873 -8.1349592 -2.1769495
-1.8974344 -8.9497681 -2.1677184
-2.1106315 -9.9553709 -2.1631134
-1.1642647 -5.4032001 -2.3086836
-1.2255493 -5.687614 -2.271914
-1.3681688 -6.3494925 -2.1947222
-1.4771348 -6.8551898 -2.1881881
-1.605685 -7.4517741 -2.1858044
-1.7516537 -8.1291952 -2.1769495
-1.925872 -8.9377203 -2.1663351
-2.1448686 -9.9540548 -2.164361
-1.1836003 -5.4103332 -2.3133087
-1.2398283 -5.6673565 -2.2653666
-1.2933064 -5.911808 -2.2026098
-1.3881099 -6.3451629 -2.1947222
-1.4986641 -6.8505154 -2.1881881
-1.6290879 -7.4466934 -2.1858044
-1.7759434 -8.1179819 -2.1754298
-1.9551892 -8.9373283 -2.1677184
-2.1752937 -9.9434443 -2.1635292
-1.1987326 -5.3937678 -2.3079128
-1.2561903 -5.6523018 -2.2610018
-1.3112726 -5.9001484 -2.1998734
-1.4091438 -6.3405252 -2.1947222
-1.5201306 -6.8399167 -2.1864007
-1.6550245 -7.4468799 -2.1874583
-1.803694 -8.1158266 -2.1764431
-1.9865049 -8.9383955 -2.1695631
-2.2091048 -9.9399967 -2.164361
-2.4040394 -10.817116 -2.0877752
-2.6430471 -11.718588 -1.9736553
-1.2152659 -5.3881745 -2.3071418
-1.268613 -5.624702 -2.2515445
-1.42989 -6.3397627 -2.1960025
-1.5424517 -6.8388324 -2.1875923
-1.6796808 -7.4472704 -2.1891119
-1.8300333 -8.1138945 -2.1774559
-2.0124354 -8.9226179 -2.1672573
-2.2403219 -9.9330072 -2.164361
-2.6776471 -11.700607 -1.9720341
-1.2354805 -5.3987222 -2.3133087
-1.3470604 -5.8862967 -2.1978214
-1.4497995 -6.3352394 -2.1960025
-1.5639285 -6.8339529 -2.1875923
-1.7026393 -7.4400826 -2.1885607
-1.8559458 -8.1099911 -2.1779625
-2.0426266 -8.9257374 -2.1695631
-2.2715154 -9.9259205 -2.164361
-2.4684494 -10.786469 -2.0848126
-2.690527 -11.580168 -1.9532281
-1.2525407 -5.3910003 -2.3117669
-1.2998488 -5.5946169 -2.2428148
-1.3682735 -5.8891201 -2.2005577
-1.4686555 -6.3211694 -2.1928012
-1.7264314 -7.4306502 -2.1874583
-1.8823907 -8.1019077 -2.1774559
-2.0717731 -8.9170189 -2.1691017
-2.3044176 -9.9183331 -2.164361
-2.7370682 -11.605757 -1.9590645
-1.2695642 -5.383225 -2.3102252
-1.314118 -5.5721431 -2.2355402
-1.388658 -5.8882084 -2.2019255
-1.609218 -6.8234301 -2.1875923
-1.7515044 -7.4267554 -2.1880095
-1.9105799 -8.1012697 -2.1789753
-2.1022255 -8.913888 -2.1700242
-2.3372958 -9.9106369 -2.164361
-2.7602036 -11.541439 -1.9496615
-1.2899039 -5.393568 -2.3163919
-1.4058384 -5.8783331 -2.1998734
-1.5120897 -6.3226099 -2.1966429
-1.6310909 -6.8201976 -2.1881881
-1.7752751 -7.4230862 -2.1885607
-1.9346718 -8.0895824 -2.1774559
-2.1288612 -8.9015608 -2.1686406
-2.3688748 -9.9051476 -2.1647768
-2.80389 -11.563397 -1.9548494
-1.3064073 -5.3876958 -2.3156211
-1.3429569 -5.5384288 -2.2253554
-1.4260706 -5.8811936 -2.2026098
-1.5328386 -6.3215108 -2.1979232
-1.6529593 -6.816896 -2.1887839
-1.9609884 -8.087225 -2.1784689
-2.1558988 -8.8910465 -2.1677184
-2.4013643 -9.9033594 -2.1660242
-2.8354917 -11.535366 -1.9516069
-1.3237668 -5.3853569 -2.3163919
-1.3581257 -5.525136 -2.2217181
-1.5522379 -6.3148246 -2.197283
-1.6743666 -6.8116693 -2.1887839
-1.8223391 -7.4136519 -2.1891119
-1.9873086 -8.0847826 -2.1794817
-2.1847486 -8.8880091 -2.1686406
-2.4319971 -9.8938665 -2.1656084
-2.8660903 -11.495261 -1.946419
-1.3420647 -5.3827281 -2.3171628
-1.3750885 -5.5151792 -2.2195356
-1.4626555 -5.8663912 -2.2005577
-1.5740871 -6.3133192 -2.1985636
-1.6974078 -6.8079314 -2.1893795
-1.8478442 -7.4112992 -2.1902146
-2.0136402 -8.0762701 -2.1789753
-2.2146816 -8.8826036 -2.1691017
-2.4662135 -9.8914433 -2.1668558
-2.9022579 -11.478041 -1.945122
-1.3915428 -5.503365 -2.2166257
-1.4802577 -5.8542204 -2.1978214
-1.5926913 -6.2988801 -2.1953623
-1.7199738 -6.8022656 -2.1893795
-1.8714676 -7.4014034 -2.1891119
-2.0408845 -8.0714245 -2.1794817
-2.2455556 -8.8808718 -2.170485
-2.4970818 -9.8756237 -2.1651926
-2.9260585 -11.421072 -1.9370161
-1.406051 -5.4881372 -2.2122607
-1.4981757 -5.8477206 -2.1971374
-1.8956652 -7.3992124 -2.1902146
-2.0671923 -8.0687218 -2.180495
-2.2724791 -8.8700027 -2.1695631
-2.5285804 -9.8696251 -2.1656084
-2.9520075 -11.373619 -1.9305313
-1.420477 -5.4728732 -2.207896
-1.5165391 -5.8429856 -2.1971374
-1.6322364 -6.2887487 -2.1953623
-1.7621996 -6.7894769 -2.1887839
-1.9193834 -7.395081 -2.1907659
-2.091558 -8.0584421 -2.1794817
-2.300822 -8.8647041 -2.1700242
-2.5576077 -9.8540583 -2.1639452
-1.3992729 -5.3223572 -2.2986624
-1.5363218 -5.8436451 -2.1991894
-1.6529489 -6.2872543 -2.1966429
-1.784492 -6.7875996 -2.1899753
-1.9416291 -7.3852954 -2.1896632
-2.1168644 -8.0518312 -2.1794817
-2.3266811 -8.8499022 -2.1681795
-1.4533918 -5.4545856 -2.2042587
-1.554724 -5.8348861 -2.1978214
-1.6723258 -6.2762465 -2.1947222
-1.8074825 -6.7834897 -2.1905711
-1.9656143 -7.3769588 -2.1891119
-2.143554 -8.0447674 -2.1794817
-2.3575194 -8.8477802 -2.1695631
-2.6121233 -9.8033104 -2.1564603
-1.4282875 -5.2897978 -2.2886415
-1.4705007 -5.4461384 -2.2028036
-1.5740649 -5.8296981 -2.1978214
-1.6941174 -6.2743239 -2.1960025
-1.8304654 -6.7793016 -2.1911669
-1.991069 -7.3741121 -2.1902146
-2.1702199 -8.0376148 -2.1794817
-2.3878615 -8.8436708 -2.170485
-2.6318696 -9.7473774 -2.1460648
-1.4385725 -5.2621427 -2.2786205
-1.4885858 -5.445086 -2.2042587
-1.850244 -6.7679925 -2.1893795
-2.0127048 -7.3622565 -2.1885607
-2.4156332 -8.8361254 -2.170485
-2.6506138 -9.6956587 -2.1365006
-1.4511585 -5.2433686 -2.2724538
-1.60966 -5.816071 -2.1964533
-1.7335063 -6.263556 -2.1960025
-2.0358236 -7.3558979 -2.1885607
-2.2206783 -8.0238199 -2.1794817
-2.442342 -8.8247423 -2.1695631
-2.6800163 -9.6835136 -2.135669
-1.4641386 -5.2263446 -2.2670579
-1.5222652 -5.4338312 -2.203531
-1.7506192 -6.2489567 -2.1928012
-1.8927307 -6.7562337 -2.1893795
-1.6028537 -5.7214975 -1.5554703
-2.4721527 -8.8245211 -2.1714072
-2.7067297 -9.6618586 -2.1327584
-1.477432 -5.2072568 -2.260891
-1.5392594 -5.4251695 -2.2020762
-1.6471845 -5.8055549 -2.1964533
-1.9172095 -6.757267 -2.1917624
-2.0853817 -7.3499956 -2.1907659
-1.4911247 -5.1899133 -2.2554951
-1.5567272 -5.4182448 -2.2013488
-1.6685034 -5.8072858 -2.1991894
-1.7904558 -6.2317457 -2.1908805
-1.9385527 -6.7472024 -2.1905711
-2.1097441 -7.34304 -2.1907659
-1.6370251 -5.6977243 -1.5519248
-1.6428374 -5.7179546 -1.4096395
-1.6433266 -5.7196574 -1.2649348
-1.6423078 -5.7161107 -1.1205406
-1.658304 -5.7042027 -0.97596562
-1.6592048 -5.7073016 -0.83531702
-1.6591794 -5.7072139 -0.69504583
-1.503816 -5.1727982 -2.2500992
-1.5773823 -5.4258499 -2.2064409
-1.6846411 -5.7947965 -2.1964533
-1.9602735 -6.7429118 -2.1911669
-2.134413 -7.3419137 -2.1924198
-1.6549174 -5.692553 -1.5519248
-1.6602499 -5.7108965 -1.4091784
-1.6612877 -5.7144661 -1.2649348
-1.6591604 -5.7071486 -1.1198
-1.6773293 -5.7027512 -0.97661406
-1.6788028 -5.7077608 -0.83615208
-1.5153723 -5.1521134 -2.2431617
-1.5907401 -5.4083567 -2.2013488
-1.6985946 -5.7750511 -2.1909809
-1.8172784 -6.1785641 -2.1761553
-1.9836017 -6.7440462 -2.1935496
-2.1580098 -7.3370166 -2.192971
-1.6792809 -5.7093863 -1.4101006
-1.6786797 -5.7073421 -1.264519
-1.6765268 -5.7000222 -1.1194297
-1.6952369 -5.6974535 -0.97661406
-1.6955965 -5.6986618 -0.83559537
-1.6955721 -5.6985803 -0.69527811
-1.5304983 -5.1437898 -2.2416201
-1.6029415 -5.3872614 -2.1948013
-1.7135135 -5.7588787 -2.1868768
-1.717261 -5.7714729 -2.0346637
-1.7200156 -5.7807312 -1.8819728
-2.178308 -7.3209877 -2.1902146
-1.6912035 -5.6838975 -1.5524313
-1.6955442 -5.6984863 -1.4087172
-1.6982754 -5.7076654 -1.2657665
-1.6938653 -5.6928434 -1.1190593
-1.7129824 -5.6880217 -0.97596562
-1.7150552 -5.6949048 -0.83587372
-1.7150325 -5.694829 -0.69551045
-1.5422251 -5.121016 -2.2339115
-1.6197225 -5.3783484 -2.1933463
-1.7288069 -5.7405677 -2.1820884
-1.7347507 -5.760304 -2.032743
-1.7402152 -5.7784491 -1.7304515
-1.7100421 -5.6782584 -1.5524313
-1.7155005 -5.696383 -1.264519
-1.7133003 -5.6890774 -1.1194297
-1.7308431 -5.6826124 -0.97596562
-1.7317834 -5.6856995 -0.83531702
-1.7329146 -5.6894131 -0.69551045
-1.5566922 -5.1108494 -2.2315991
-1.6355252 -5.3696694 -2.1918914
-1.7413567 -5.7171297 -2.1752481
-1.7500778 -5.7457628 -2.0295417
-1.7484084 -5.7402816 -1.8724407
-1.7499573 -5.7453671 -1.7221823
-1.7273083 -5.6710072 -1.5519248
-1.7323071 -5.6874189 -1.4087172
-1.7333875 -5.6909657 -1.264519
-1.7517719 -5.6836352 -0.69551045
-1.5703706 -5.095077 -2.226974
-1.6505792 -5.3553147 -2.1882541
-1.7536634 -5.6897717 -2.1670396
-1.7601929 -5.7109566 -2.0192978
-1.7629358 -5.7198558 -1.8676748
-1.7644703 -5.7248349 -1.7177721
-1.7449651 -5.66155 -1.5509118
-1.7505847 -5.6797833 -1.4082561
-1.7522501 -5.6851864 -1.264519
-1.7494239 -5.6760163 -1.1190593
-1.7675039 -5.6713161 -0.97596562
-1.7684641 -5.6743975 -0.83531702
-1.7678459 -5.6724138 -0.69481355
-1.5819768 -5.0760231 -2.2208071
-1.6657324 -5.3447661 -2.1860716
-1.7681746 -5.6734686 -2.1629355
-1.7736156 -5.6909266 -2.0141761
-1.775216 -5.6960616 -1.8617173
-1.7778704 -5.7045789 -1.7133619
-1.769578 -5.6779714 -1.4091784
-1.7695199 -5.6777854 -1.2641032
-1.7666622 -5.6686158 -1.1186891
-1.7853125 -5.6657357 -0.97596562
-1.7874728 -5.6725917 -0.83587372
-1.7868519 -5.6706209 -0.69527811
-1.5979161 -5.0710282 -2.2208071
-1.6853153 -5.348392 -2.1897089
-1.7797769 -5.6481686 -2.155411
-1.7857914 -5.6672559 -2.0077736
-1.7890856 -5.6777101 -1.8575469
-1.7900056 -5.6806293 -1.7078491
-1.781085 -5.6523199 -1.5514184
-1.7868226 -5.6705279 -1.4087172
-1.7873489 -5.6721983 -1.2641032
-1.7850531 -5.6649127 -1.1190593
-1.8034916 -5.6579032 -0.97564131
-1.8044698 -5.6609721 -0.83503872
-1.8044403 -5.6608796 -0.69481355
-1.6108003 -5.0533934 -2.2154112
-1.7053052 -5.3498735 -2.1926188
-1.7956434 -5.6332822 -2.1519907
-1.7988207 -5.64325 -2.0013714
-1.8038452 -5.6590128 -1.8533767
-1.8029948 -5.6563449 -1.7023363
-1.7998192 -5.6463823 -1.5514184
-1.8067431 -5.6681042 -1.264519
-1.804426 -5.6608343 -1.1194297
-1.821638 -5.6500139 -0.97531712
-1.8238395 -5.6568422 -0.83531702
-1.824421 -5.6586456 -0.69527811
-1.6241509 -5.0374856 -2.2107861
-1.7224646 -5.3424163 -2.1918914
-1.8062398 -5.6022549 -2.1424141
-1.8122911 -5.6210232 -1.9956093
-1.8184998 -5.6402802 -1.8492064
-1.818202 -5.6393566 -1.6990288
-1.8173455 -5.6367002 -1.5504054
-1.8237939 -5.6567006 -1.4082561
-1.8243281 -5.6583576 -1.2636874
-1.8225844 -5.6529493 -1.1190593
-1.8387759 -5.6457558 -0.83448195
-1.8412027 -5.6532073 -0.69527811
-1.7377313 -5.3355098 -2.1911638
-1.8181982 -5.5825744 -2.1369417
-1.8260276 -5.6066136 -1.9924082
-1.8269496 -5.6094446 -1.8408661
-1.8289728 -5.6156564 -1.6935159
-1.8411725 -5.6531143 -1.4087172
-1.838132 -5.6437788 -1.1183188
-1.8577189 -5.6403308 -0.97564131
-1.859939 -5.6470709 -0.69527811
-1.6511513 -5.0131583 -2.2046194
-1.7548319 -5.3279495 -2.1904364
-1.8325849 -5.5640197 -2.1321535
-1.8392745 -5.5843306 -1.9866461
-1.8419572 -5.5924754 -1.8372915
-1.8415701 -5.5913005 -1.6880032
-1.8533309 -5.6270075 -1.5509118
-1.8599083 -5.6469779 -1.4087172
-1.8604562 -5.6486416 -1.2641032
-1.8574517 -5.6395192 -1.1186891
-1.8754296 -5.6344666 -0.97564131
-1.8758214 -5.635643 -0.83476031
-1.875789 -5.6355457 -0.69458127
-1.6674755 -5.009697 -2.2053902
-1.7727385 -5.3259449 -2.1918914
-1.8435271 -5.5386195 -2.124629
-1.8490303 -5.5551534 -1.978323
-1.8528851 -5.5667343 -1.8307383
-1.8548769 -5.5727186 -1.6841443
-1.8703887 -5.6193218 -1.5504054
-1.8782547 -5.6429539 -1.4091784
-1.8794286 -5.646481 -1.2649348
-1.8751599 -5.6336555 -1.1186891
-1.8931212 -5.6285472 -0.97564131
-1.8928852 -5.6278453 -0.83448195
-1.8941171 -5.6315079 -0.69481355
-1.6832054 -5.0044341 -2.2053902
-1.8573228 -5.5221128 -2.1205249
-1.8580164 -5.5241747 -1.9693598
-1.8612343 -5.5337424 -1.821802
-1.8674716 -5.5522866 -1.6797341
-1.8886495 -5.615252 -1.5509118
-1.8953524 -5.6351805 -1.4087172
-1.8965344 -5.6386952 -1.264519
-1.8928488 -5.6277375 -1.1186891
-1.2666495 -3.7228873 -2.3321438
-1.9121222 -5.6200361 -0.97531712
-1.9131573 -5.6230783 -0.83476031
-1.9131243 -5.6229815 -0.69458127
-1.7000701 -4.9967809 -2.2046194
-1.810423 -5.3211255 -2.1948013
-1.8711399 -5.4995823 -2.1143684
-1.8754579 -5.5122738 -1.9674391
-1.8762355 -5.5145593 -1.8176318
-1.8812687 -5.5293527 -1.6747726
-1.9082397 -5.6086245 -1.5509118
-1.9143852 -5.6266875 -1.4082561
-1.9105835 -5.6155133 -1.1175781
-1.930813 -5.6170406 -0.83476031
-1.9314252 -5.6188216 -0.69481355
-1.7157593 -4.9914155 -2.2046194
-1.8283416 -5.3189349 -2.1962562
-1.8884077 -5.4936767 -2.1143684
-1.8915337 -5.5027709 -1.9661585
-1.8935504 -5.5086379 -1.8176318
-1.9258499 -5.602602 -1.5509118
-1.9320523 -5.6206455 -1.4082561
-1.9282154 -5.6094837 -1.1175781
-1.9477997 -5.609076 -0.83448195
-1.9484158 -5.6108503 -0.69458127
-1.7332476 -4.991231 -2.2069318
-1.84382 -5.3096457 -2.1948013
-1.9081229 -5.4948187 -2.1171045
-1.9131624 -5.5093312 -1.9706401
-1.9146044 -5.5134835 -1.8212063
-1.9191262 -5.526505 -1.6775291
-1.9654109 -5.6029291 -0.83448195
-1.9647175 -5.6009521 -0.69411659
-1.8598744 -5.3020687 -2.1940737
-1.9328407 -5.5100789 -2.125313
-1.936105 -5.5193849 -1.9764023
-1.9413949 -5.5344653 -1.8301425
-1.9422053 -5.5367751 -1.6824905
-1.9673285 -5.6083961 -1.4082561
-1.9836651 -5.5985942 -0.83476031
-1.9836309 -5.5984974 -0.69458127
-1.7639575 -4.9785028 -2.206161
-1.8783888 -5.3014679 -2.1962562
-1.9564184 -5.5216942 -2.1321535
-1.9603962 -5.5329208 -1.9834448
-1.9664241 -5.5499339 -1.8372915
-1.9666531 -5.55058 -1.6885545
-1.9855882 -5.6040215 -1.4087172
-1.9816526 -5.5929141 -1.1179484
-2.0031967 -5.5916352 -0.83476031
-2.0031621 -5.5915389 -0.69458127
-1.7844379 -4.9810014 -2.2100153
-1.8962555 -5.2931242 -2.1955287
-1.982654 -5.5342932 -2.139678
-1.989284 -5.5528002 -1.9930483
-1.9948004 -5.5681982 -1.845632
-1.9937978 -5.5653992 -1.6951698
-2.0038261 -5.5933924 -1.4077951
-2.0214269 -5.5871773 -0.83503872
-2.0193663 -5.5814819 -0.69411659
-1.9128746 -5.2871413 -2.1955287
-2.0096211 -5.5545464 -2.1499386
-2.0112307 -5.5589952 -1.99753
-2.0187786 -5.5798573 -1.8515894
-2.0165043 -5.5735712 -1.6995801
-2.022712 -5.5907297 -1.4087172
-2.0396495 -5.5826592 -0.83531702
-2.038255 -5.5788426 -0.69458127
-1.8163321 -4.9714246 -2.2107861
-1.9339507 -5.2933545 -2.2006211
-2.0315762 -5.5605621 -2.1547267
-2.0332367 -5.5651073 -2.0020115
-2.0448158 -5.5968003 -1.8593342
-2.043241 -5.5924897 -1.7072979
-2.0395982 -5.5825195 -1.4082561
-2.0558064 -5.5725079 -0.83476031
-2.0550833 -5.5705476 -0.69434887
-1.829386 -4.9587684 -2.2077026
-1.9492809 -5.2837577 -2.1991663
-2.0568407 -5.5753112 -2.1629355
-2.0618582 -5.588912 -2.0128956
-2.070318 -5.6118431 -1.8664832
-2.0694501 -5.6094909 -1.7144644
-2.0719204 -5.5623097 -0.83420366
-2.0725737 -5.5640635 -0.69434887
-1.8443115 -4.9512672 -2.2069318
-1.9626192 -5.268878 -2.1955287
-2.0835304 -5.5934782 -2.1725118
-2.0846977 -5.5966115 -2.0180175
-2.0959353 -5.6267805 -1.8736323
-2.0937738 -5.6209779 -1.7199771
-2.0693245 -5.5553408 -1.5519248
-2.0753131 -5.5714178 -1.4087172
-2.0927188 -5.5587511 -0.83476031
-2.1083395 -5.6002426 -2.1779842
-2.1175718 -5.6247663 -2.030822
-2.1236353 -5.640872 -1.8807812
-2.1269288 -5.6496201 -1.7310027
-2.0873396 -5.5444627 -1.5509118
-2.0947478 -5.5641398 -1.4087172
-2.1094685 -5.5502973 -0.83448195
-1.8757972 -4.9354763 -2.2053902
-2.1359384 -5.6199431 -2.1882448
-2.1433103 -5.6393394 -2.0385051
-2.1467726 -5.6484499 -1.8855473
-2.1514974 -5.660881 -1.7365154
-2.1054356 -5.5396862 -1.5514184
-2.1276047 -5.5454922 -0.83476031
-2.1636817 -5.6395254 -2.1985054
-2.1671247 -5.6484995 -2.0442669
-2.1686108 -5.6523728 -1.8891218
-2.7387912 -7.1385183 -2.1924198
-2.1214428 -5.5294318 -1.5504054
-2.1443 -5.5369339 -0.83448195
-2.1759577 -5.6186795 -2.193033
-2.3080266 -5.959703 -2.1595092
-2.7639804 -7.1370502 -2.1946247
-2.1638477 -5.5357037 -0.83531702
-1.9242446 -4.9227352 -2.2077026
-2.0537474 -5.2540379 -2.2028036
-2.3612289 -6.0406585 -2.1915209
-2.5502298 -6.5241733 -2.1858051
-2.7856891 -7.1265411 -2.1940734
-2.1575518 -5.5195971 -1.5514184
-2.1800115 -5.5229707 -0.83448195
-1.9385259 -4.9111772 -2.2053902
-2.0704756 -5.2454662 -2.2020762
-2.2142665 -5.6097546 -2.1950853
-2.3833349 -6.0380826 -2.1934416
-2.5697482 -6.5103526 -2.1840177
-2.8086004 -7.1154757 -2.1935222
-3.0737433 -7.7872043 -2.191638
-3.3539481 -8.4970922 -2.1644907
-3.6214428 -9.1747789 -2.0965817
-2.2034469 -5.5285902 -0.83643037
-2.0878584 -5.2385716 -2.2020762
-2.2363358 -5.6111112 -2.1985054
-2.4082549 -6.0424666 -2.1979232
-2.5927362 -6.505343 -2.1852093
-2.8350275 -7.1132669 -2.1957273
-3.0966837 -7.7697797 -2.1896122
-3.366255 -8.4461517 -2.154346
-3.6199784 -9.0827589 -2.0782855
-3.8624382 -9.6911068 -1.9655747
-4.3839474 -10.899915 -1.9302069
-5.0017986 -12.436093 -1.8838472
-1.6394509 -4.0762067 -2.3360908
-2.102915 -5.228529 -2.2006211
-2.2532513 -5.6023135 -2.1978214
-2.4272261 -6.0348711 -2.1979232
-2.6124482 -6.4953933 -2.1846135
-2.8559258 -7.1007576 -2.1946247
-3.1210783 -7.7600126 -2.1896122
-3.3797016 -8.4030342 -2.1460459
-3.6616349 -9.1040115 -2.0857704
-3.8877313 -9.6661606 -1.9629825
-4.4523082 -10.970208 -1.945122
-5.0356288 -12.407473 -1.8818988
-1.9883555 -4.8991833 -2.2084737
-2.1207318 -5.2253499 -2.2020762
-2.4461727 -6.027216 -2.1979232
-2.6357131 -6.4942312 -2.1869965
-2.8782189 -7.0917506 -2.1946247
-3.1432581 -7.7447906 -2.1880925
-3.4038873 -8.3869648 -2.1446624
-3.675504 -9.0562105 -2.0774539
-3.9136438 -9.642972 -1.9607607
-4.4800196 -10.93973 -1.9422039
-5.0730824 -12.387926 -1.8813422
-2.1371374 -5.2186613 -2.2020762
-2.2884071 -5.5880456 -2.1978214
-2.465096 -6.0195012 -2.1979232
-2.6582732 -6.4912195 -2.1887839
-2.9019415 -7.0862317 -2.1957273
-3.1675739 -7.7348776 -2.1880925
-3.4176817 -8.3456144 -2.1368234
-3.7150574 -9.0717735 -2.0836911
-3.9357262 -9.6106234 -1.9566876
-4.5091281 -10.902141 -1.938313
-5.0875297 -12.300596 -1.870765
-2.3136456 -5.5939169 -2.2032938
-2.4882658 -6.0161123 -2.1998439
-2.6809158 -6.4819002 -2.1887839
-2.9281292 -7.0796118 -2.1968298
-3.1938155 -7.7219858 -2.1875861
-3.4527433 -8.3480196 -2.1405125
-3.7384768 -9.0388641 -2.0791171
-3.970001 -9.5986423 -1.9570578
-1.5183978 -3.6405513 -2.3392851
-4.5604472 -10.93425 -1.946419
-5.1301017 -12.30007 -1.8729917
-1.6919305 -4.0566182 -2.3370295
-1.9059968 -4.569869 -2.2045126
-2.1722271 -5.2081904 -2.203531
-2.5039165 -6.0034571 -2.1979232
-2.6994007 -6.4721551 -2.1881881
-3.4737506 -8.3287573 -2.1382067
-3.7479584 -8.9862051 -2.0695531
-3.9939229 -9.5759373 -1.954836
-4.5966802 -10.919067 -1.946419
-5.1693244 -12.27934 -1.872435
-1.9268115 -4.5769954 -2.2110205
-2.1894858 -5.2009583 -2.203531
-2.5289564 -6.0073452 -2.2024047
-2.7223291 -6.4666877 -2.1893795
-2.9725525 -7.0610743 -2.1968298
-3.2445214 -7.7071161 -2.1891055
-3.4953091 -8.3028431 -2.1345179
-3.7921581 -9.0079861 -2.0774539
-4.0256553 -9.5626402 -1.954836
-4.6402187 -10.926371 -1.95031
-5.2032313 -12.252102 -1.870765
-1.9418954 -4.5726008 -2.211834
-2.2058146 -5.1940541 -2.203531
-2.5448544 -5.9923944 -2.1998439
-2.7426317 -6.4581032 -2.1893795
-2.9977272 -7.0587792 -2.1990349
-3.2687185 -7.6968851 -2.1891055
-3.515291 -8.2774916 -2.1308289
-3.7844982 -8.911397 -2.0579102
-4.0333982 -9.4974842 -1.9440972
-4.6861796 -10.938951 -1.9551736
-5.2526159 -12.261182 -1.8746618
-1.9569706 -4.5681567 -2.2126474
-2.5621755 -5.9808869 -2.1985636
-3.0176177 -7.0440254 -2.1973813
-3.2944074 -7.6901355 -2.1901186
-3.5497086 -8.2860851 -2.1359012
-3.7993803 -8.8688936 -2.0508411
-4.0647635 -9.4883785 -1.9448378
-4.7157168 -10.902599 -1.9516069
-5.3339095 -12.331843 -1.8883008
-1.9714541 -4.5579443 -2.2110205
-2.5837893 -5.9736457 -2.1992037
-2.787677 -6.4450278 -2.1911669
-3.0421877 -7.0334487 -2.1973813
-3.3227668 -7.6821399 -2.1911316
-3.5654767 -8.2432775 -2.1280622
-3.8326452 -8.8609638 -2.0520887
-4.0884967 -9.4524851 -1.940394
-4.749157 -10.885922 -1.9512826
-5.3781695 -12.327733 -1.8902493
-1.9901474 -4.5617762 -2.2159014
-2.6017861 -5.9637623 -2.1985636
-2.807148 -6.4344888 -2.1905711
-3.0658066 -7.0273809 -2.1984837
-3.3476586 -7.6734366 -2.191638
-3.5680106 -8.1785231 -2.1142285
-3.8549886 -8.8363285 -2.0491779
-4.1268182 -9.4594107 -1.9444675
-4.7888956 -10.883595 -1.9535524
-5.4288354 -12.337969 -1.8944243
-2.0029967 -4.5521569 -2.2142744
-2.6182191 -5.9503565 -2.1966429
-2.827348 -6.4256382 -2.1905711
-3.0870938 -7.0159554 -2.1979325
-3.3709691 -7.6611109 -2.1911316
-3.6140645 -8.2135878 -2.1262176
-3.8559403 -8.7632923 -2.0350397
-4.146224 -9.4230127 -1.9396535
-4.7942462 -10.803555 -1.9418797
-5.4579301 -12.299129 -1.8910842
-2.0180292 -4.5475116 -2.2150879
-2.2927067 -5.166482 -2.2071683
-2.6392057 -5.9472971 -2.1985636
-2.8506191 -6.4237046 -2.1929541
-3.1099 -7.0079794 -2.1984837
-3.3942361 -7.6487141 -2.190625
-3.6343253 -8.1897411 -2.1229899
-3.9056711 -8.8012037 -2.0466828
-4.1622548 -9.3794003 -1.9333583
-4.8389158 -10.807411 -1.9454464
-5.4501233 -12.172504 -1.8743834
-2.0360844 -4.5474648 -2.2183418
-2.6589127 -5.9385123 -2.1985636
-2.871124 -6.4124732 -2.1923583
-3.1378353 -7.0081563 -2.2017913
-3.4187903 -7.6356511 -2.1901186
-3.6590769 -8.1723156 -2.1216066
-3.9204447 -8.7560644 -2.0391982
-4.2037754 -9.3888655 -1.9381722
-4.8657918 -10.771523 -1.9418797
-5.4896445 -12.15256 -1.8741051
-2.0511534 -4.5406885 -2.2183418
-2.1804397 -4.8268924 -2.2123277
-2.6840513 -5.94175 -2.2030451
-2.8939452 -6.4063973 -2.1935496
-3.158684 -6.992456 -2.2001374
-3.4448888 -7.6260347 -2.190625
-3.6420934 -8.0625916 -2.0962448
-3.9373794 -8.7162733 -2.0329609
-4.2195139 -9.3408413 -1.9311365
-4.8955169 -10.747202 -1.9402585
-5.5409322 -12.164091 -1.8785588
-2.0654082 -4.5342216 -2.2183418
-2.7027047 -5.9332881 -2.2030451
-2.9140573 -6.3972735 -2.1935496
-3.1806359 -6.9824982 -2.2001374
-3.4704342 -7.6186962 -2.191638
-3.698061 -8.1184092 -2.1137674
-3.9736636 -8.723443 -2.0375347
-4.2545419 -9.3400593 -1.9337286
-4.9292555 -10.73177 -1.9402585
-1.7422916 -3.7932446 -2.3453493
-5.5832515 -12.155622 -1.8799504
-2.0811677 -4.5310316 -2.2199686
-2.7229125 -5.9282117 -2.2043254
-2.9373276 -6.3950276 -2.1959326
-3.2017536 -6.9707246 -2.1995862
-3.4903135 -7.5989652 -2.1891055
-3.7324822 -8.1262045 -2.1188397
-4.0075812 -8.7251387 -2.0408614
-4.2879648 -9.335578 -1.9355801
-4.9463592 -10.680414 -1.9337736
-5.6272388 -12.150601 -1.8818988
-2.7447085 -5.926506 -2.2068865
-2.9582064 -6.3875003 -2.1965287
-3.2212136 -6.9553976 -2.1979325
-3.5174217 -7.594985 -2.1911316
-3.7424543 -8.0808859 -2.1100786
-4.0234628 -8.6876526 -2.0350397
-4.2957978 -9.275691 -1.9259522
-4.9725614 -10.644284 -1.9302069
-5.6591187 -12.113931 -1.8791153
-2.1119313 -4.5208082 -2.2215958
-2.7635448 -5.9156547 -2.2062461
-2.9793723 -6.3776555 -2.1965287
-3.2458882 -6.9481611 -2.1990349
-3.5417697 -7.5815258 -2.190625
-3.7832341 -8.0984058 -2.1179178
-4.0514226 -8.6724911 -2.0346239
-4.3390117 -9.288105 -1.9315068
-5.0103536 -10.633093 -1.9311798
-5.7169847 -12.132723 -1.8849607
-2.1245737 -4.5088215 -2.2191553
-2.7823377 -5.9047441 -2.205606
-2.9996898 -6.366014 -2.1959326
-3.267271 -6.9338818 -2.1979325
-3.56689 -7.5697398 -2.190625
-3.8050897 -8.0752535 -2.1151509
-4.1001706 -8.7014809 -2.0446038
-4.3781638 -9.2914457 -1.9352099
-5.0403466 -10.610168 -1.9298828
-5.7482743 -12.10039 -1.8827339
-2.8041267 -5.9028201 -2.2081668
-3.0213132 -6.3600078 -2.1971242
-3.2923384 -6.9305286 -2.2001374
-3.5906537 -7.5584965 -2.190625
-3.8237596 -8.0491953 -2.1114619
-4.1216111 -8.6761875 -2.041693
-4.3929958 -9.2474651 -1.9289145
-1.7096888 -3.5699954 -2.3474467
-5.0787697 -10.604962 -1.9318281
-5.8179126 -12.148363 -1.8930327
-2.1568077 -4.5036225 -2.2232225
-2.8202021 -5.8888545 -2.2062461
-3.0404544 -6.3487625 -2.1965287
-3.3132651 -6.9184179 -2.1995862
-3.6135466 -7.5454345 -2.1901186
-3.8565941 -8.0529413 -2.115612
-4.1572976 -8.6808395 -2.0458512
-4.4576812 -9.3080692 -1.9444675
-5.1086297 -10.581845 -1.9305313
-1.8178233 -3.7653785 -2.349268
-5.8379674 -12.09257 -1.8871874
-2.8386889 -5.8799653 -2.2062461
-3.0628748 -6.344337 -2.1983156
-3.3358197 -6.9097056 -2.2001374
-3.6414394 -7.5427556 -2.1926508
-3.8700292 -8.0162497 -2.1091564
-4.1819983 -8.6624517 -2.0446038
-4.4330692 -9.1825113 -1.9211383
-5.1288948 -10.539124 -1.9256676
-2.8604641 -5.8778329 -2.208807
-3.0844624 -6.3381166 -2.1995072
-3.3566699 -6.8974628 -2.1995862
-3.668505 -7.538238 -2.1946771
-3.8900847 -7.9935517 -2.1063898
-4.2109036 -8.6527872 -2.0454354
-5.1551213 -10.504342 -1.9224253
-5.9307699 -12.084844 -1.8919193
-2.880775 -5.8700161 -2.2094474
-3.1037812 -6.3244252 -2.1983156
-3.3829124 -6.8931975 -2.2017913
-3.6926303 -7.5242944 -2.1941705
-4.4940071 -9.1572208 -1.9218788
-5.1820464 -10.471271 -1.919507
-2.9019046 -5.8638277 -2.2107279
-3.1272759 -6.319232 -2.200103
-3.4040458 -6.8784957 -2.2006888
-3.7124109 -7.5016036 -2.1911316
-5.2087512 -10.442576 -1.9172373
-2.9203122 -5.854682 -2.2107279
-3.1496699 -6.3145018 -2.2018902
-3.4342201 -6.8849716 -2.2062016
-3.7316418 -7.4812469 -2.1885989
-4.2856665 -8.5919628 -2.0408614
-4.4916372 -9.0048962 -1.8959576
-4.5173092 -8.9855766 -1.6523324
-6.0011315 -11.937112 -1.8777236
-2.9403932 -5.8488641 -2.2120082
-3.1677773 -6.3011637 -2.2006989
-3.444607 -6.8518181 -2.1990349
-3.7473054 -7.4539285 -2.1840405
-4.5666933 -9.0838089 -1.9155837
-5.2787213 -10.418445 -1.9188585
-6.1657133 -12.169072 -1.9172488
-2.0783734 -4.1020193 -2.3097882
-2.9553282 -5.8328371 -2.2094474
-3.1892831 -6.2945867 -2.2018902
-3.4704607 -6.8495378 -2.2017913
-3.7654574 -7.4317636 -2.1810014
-4.0073752 -7.9092288 -2.1008563
-4.3386827 -8.5631199 -2.0404456
-5.316853 -10.40347 -1.919507
-2.9817066 -5.8342957 -2.2139292
-3.2103674 -6.2817154 -2.2012944
-3.4934742 -6.83567 -2.2012401
-3.7799304 -7.3961773 -2.174417
-4.5964289 -8.9938183 -1.9029934
-5.3440824 -10.380631 -1.9182101
-1.9122237 -3.7144055 -2.3473086
-2.9937992 -5.8153157 -2.2100875
-3.5190189 -6.8355303 -2.2045476
-3.8053997 -7.3918118 -2.1764431
-4.3786664 -8.5053558 -2.0333765
-4.6491804 -9.030817 -1.9137322
-5.382113 -10.369859 -1.919507
-3.0174317 -5.813765 -2.2132888
-3.2488925 -6.259727 -2.2006989
-3.5372393 -6.8152919 -2.2017913
-3.8218691 -7.3636956 -2.1718843
-4.1086907 -7.9163222 -2.1133063
-4.390626 -8.4595337 -2.0258918
-4.6600895 -8.9787169 -1.9059558
-5.418324 -10.359894 -1.920804
-3.0339253 -5.8008981 -2.2120082
-3.2729666 -6.2579474 -2.2036774
-3.561306 -6.8092561 -2.2034452
-3.8360181 -7.3345079 -2.1668193
-4.6964722 -8.9797058 -1.9092885
-1.8502853 -3.5108635 -2.3535678
-5.4434829 -10.328854 -1.9182101
-1.9510431 -3.7020488 -2.3512273
-3.0521345 -5.7913384 -2.2120082
-3.2943907 -6.2510128 -2.204869
-3.586266 -6.8048377 -2.2056503
-3.8563349 -7.3172855 -2.1652999
-4.4436927 -8.4317799 -2.0258918
-4.7539825 -9.0205469 -1.9211383
-5.4822831 -10.315017 -1.9191828
-3.0749993 -5.7856684 -2.2139292
-3.3143988 -6.2361031 -2.2036774
-3.6136067 -6.799068 -2.2078552
-3.8854856 -7.3106136 -2.167326
-4.812192 -9.0542278 -1.9318771
-5.5053453 -10.280345 -1.9159404
-6.4738703 -12.08891 -1.9272692
-3.0940552 -5.7776494 -2.2145693
-3.3357768 -6.2290258 -2.204869
-3.6349492 -6.7876821 -2.2078552
-3.9020402 -7.2864318 -2.1637805
-4.897212 -9.1447544 -1.9544656
-5.5282412 -10.245631 -1.9126979
-6.5240407 -12.091172 -1.9308877
-3.1166887 -5.7762389 -2.2177706
-3.3553281 -6.2185159 -2.204869
-3.658993 -6.7813058 -2.2095094
-3.9221542 -7.2690291 -2.1622608
-4.5342493 -8.4034414 -2.029634
-4.950181 -9.1742973 -1.9640936
-5.5679426 -10.242084 -1.9152919
-6.5563192 -12.060176 -1.9292177
-3.1366298 -5.7697477 -2.2190509
-3.3748479 -6.2079439 -2.204869
-3.6784425 -6.766398 -2.2084064
-3.9449713 -7.256671 -2.1622608
-5.5944042 -10.214155 -1.9133465
-6.5894184 -12.030833 -1.9278259
-3.1520104 -5.75488 -2.2171302
-3.3952513 -6.1989846 -2.2054648
-3.7015293 -6.7581811 -2.2095094
-3.9612439 -7.2323632 -2.1587152
-4.5785031 -8.3593426 -2.0258918
-5.0181127 -9.161974 -1.9681668
-5.6328864 -10.199748 -1.9143192
-6.6275439 -12.000824 -1.9267126
-3.1739116 -5.7471595 -2.2184107
-3.4187155 -6.1904383 -2.2066562
-3.7269561 -6.7485852 -2.2106118
-3.9817884 -7.2100224 -2.1561828
-4.2722697 -7.7360115 -2.0939395
-4.5840116 -8.300498 -2.015496
-5.6639409 -10.180279 -1.913995
-2.0353775 -3.6583557 -2.3522069
-6.6748395 -11.997252 -1.9294959
-3.1928711 -5.7388163 -2.2190509
-3.4381454 -6.1796684 -2.2066562
-3.7500069 -6.7402039 -2.2117143
-4.0128846 -7.2126961 -2.1607413
-4.6167216 -8.2980232 -2.0184069
-5.6958957 -10.162435 -1.913995
-6.704751 -11.962401 -1.9272692
-3.4622099 -6.1771636 -2.209635
-3.7721038 -6.7300663 -2.2122655
-4.328403 -7.7225976 -2.0976284
-4.6265082 -8.254468 -2.011338
-5.7355566 -10.158237 -1.9165889
-6.729641 -11.918859 -1.9236507
-2.327739 -4.1226559 -2.2409799
-3.4787831 -6.1612682 -2.2078476
-3.7951193 -6.7215314 -2.2133682
-4.0381484 -7.1519594 -2.1501048
-4.3574271 -7.7174339 -2.0999341
-4.639914 -8.2177467 -2.0059323
-5.1688766 -9.1545906 -1.9807574
-5.7731156 -10.146024 -1.9178859
-6.7583542 -11.877542 -1.9205889
-3.5020282 -6.1546769 -2.209635
-3.8183386 -6.7105799 -2.2139194
-4.0627995 -7.1402102 -2.1506114
-4.3473849 -7.6403575 -2.0828726
-4.665205 -8.1989136 -2.0051005
-5.8018208 -10.118261 -1.9162647
-6.7651939 -11.798367 -1.9114034
-3.5224187 -6.1430297 -2.209635
-3.8396149 -6.6962132 -2.2133682
-4.0931921 -7.1384473 -2.1541569
-4.3949628 -7.6647291 -2.0934784
-5.2197018 -9.1030579 -1.9770542
-5.8375258 -10.106822 -1.9175617
-6.8051963 -11.782202 -1.9122386
-3.5407443 -6.130281 -2.2090392
-3.8596699 -6.6824536 -2.212817
-4.1059198 -7.1087999 -2.1490917
-4.4102588 -7.6357179 -2.0893283
-4.7190309 -8.1703119 -2.0055165
-5.2708821 -9.125761 -1.9855713
-5.8315368 -10.023611 -1.9052405
-6.8501449 -11.774458 -1.9144653
-3.560946 -6.1207767 -2.209635
-3.8787105 -6.6669707 -2.2117143
-4.1330976 -7.1042271 -2.1516242
-4.4263964 -7.6083674 -2.0856392
-4.7427077 -8.1520624 -2.0046847
-5.8929315 -10.056321 -1.9149677
-6.902122 -11.778511 -1.9186405
-3.582088 -6.112854 -2.2108264
-3.8976927 -6.6514349 -2.2106118
-4.1299624 -7.0478048 -2.1384552
-4.4365025 -7.5709167 -2.0791836
-4.7762074 -8.1506262 -2.0080111
-5.9265027 -10.041159 -1.9156163
-6.928019 -11.738008 -1.9155787
-2.2305036 -3.7790987 -2.3332739
-3.6070976 -6.1114354 -2.214401
-3.9215016 -6.644124 -2.2122655
-4.1619191 -7.0514588 -2.1435204
-4.463233 -7.5619688 -2.0805669
-4.785881 -8.1086254 -2.001358
-5.3466659 -9.0587521 -1.9818681
-5.9204268 -9.9552965 -1.9029708
-3.6244168 -6.0945172 -2.2126138
-3.9435132 -6.631083 -2.2122655
-4.2001138 -7.0625615 -2.1511178
-4.8507423 -8.1566048 -2.0171595
-5.9351487 -9.9051361 -1.8971344
-3.6504951 -6.0922909 -2.2161882
-3.9635053 -6.6146717 -2.211163
-4.209589 -7.0253596 -2.1440268
-4.4942827 -7.5004835 -2.0718057
-4.8737421 -8.1337605 -2.015496
-6.0233407 -9.9810638 -1.9152919
-3.6656709 -6.0742531 -2.2138052
-3.9872465 -6.6071248 -2.212817
-4.2226419 -6.99719 -2.1394682
-4.5449734 -7.5313144 -2.0842559
-5.4562745 -9.041399 -1.9896445
-1.9124117 -13.337175 -1.8935894
-2.0204561 -13.17298 -1.8729917
-1.9518133 -12.19922 -2.0297489
-2.1910679 -13.149695 -1.8735485
-2.0458956 -10.974513 -2.103328
-1.9670031 -10.016643 -2.1697667
-2.1428158 -10.911941 -2.0951812
-2.0002079 -10.010065 -2.1697667
-1.5496764 -7.5028892 -2.1968298
-1.573635 -7.4998655 -2.1973813
-1.886279 -8.9899111 -2.1764796
-2.5350463 -11.895824 -1.9982976
-1.5979905 -7.4986453 -2.1984837
-1.915324 -8.9877472 -2.1774018
-1.4864744 -6.3676009 -2.2094474
-2.5020876 -10.718177 -2.0737035
-1.5075808 -6.3626375 -2.2094474
-2.5475836 -10.751896 -2.0818503
-1.5284476 -6.3615541 -2.2107279
-2.582268 -10.747662 -2.0825908
-1.5488743 -6.358562 -2.2113681
-2.610904 -10.718491 -2.0785177
-1.5688422 -6.3536649 -2.2113681
-2.6393805 -10.689246 -2.0744443
-1.5908238 -6.3521032 -2.2126486
-2.6719484 -10.668995 -2.0722225
-1.610772 -6.347074 -2.2126486
-2.7030358 -10.651023 -2.0703709
-1.631811 -6.3416977 -2.2126486
-2.9768615 -11.420173 -1.9389616
-1.6517264 -6.3365397 -2.2126486
-1.6701734 -6.3258238 -2.2107279
-2.7880938 -10.559976 -2.0577805
-1.6916306 -6.3220806 -2.2113681
-1.7140739 -6.3219228 -2.2132888
-1.7329234 -6.3128519 -2.2120082
-1.7527477 -6.3073764 -2.2120082
-1.7710146 -6.2963672 -2.2100875
-2.4898243 -8.851903 -2.1787853
-2.7285001 -9.7004499 -2.1419063
-1.7934411 -6.2959266 -2.2120082
-1.8148346 -6.2917657 -2.2126486
-1.8340613 -6.2842135 -2.2120082
-2.3460433 -8.0384645 -2.1921444
-1.5249473 -5.1646838 -2.2493284
-2.1776686 -7.3753166 -2.2050989
-1.5411654 -5.1598673 -2.2493284
-1.763026 -5.8283958 -2.2162905
-3.1536613 -10.308729 -2.0311186
-1.5465049 -4.9990396 -2.3297875
-1.801834 -5.8243847 -2.2190268
-2.4799554 -8.0163956 -2.1967032
-3.1912596 -10.31567 -2.0344515
-3.2230639 -10.303717 -2.034081
-1.5745783 -4.9787717 -2.3249066
-1.5504584 -4.6908994 -2.3385253
-1.8117977 -5.3619699 -2.2100782
-1.8295035 -5.3618603 -2.2122607
-1.96758 -5.7665305 -2.2176585
-1.7342234 -5.027998 -2.2215781
-1.8466668 -5.354003 -2.2115333
-1.7506182 -5.0242672 -2.2223487
-1.8634781 -5.348175 -2.2115333
-2.1784086 -6.189374 -2.2171302
-1.8996739 -5.2335186 -1.5964917
-1.9189521 -5.2352881 -1.0505531
-1.9739842 -5.226757 -0.78521466
-1.9687321 -5.2128506 -1.4587283
-1.9747455 -5.2287731 -1.3243326
-1.9747062 -5.2286687 -1.1880075
-2.0231581 -5.2079258 -0.91792643
-1.9145981 -4.9284754 -2.2084737
-2.0543158 -5.1859636 -1.4602479
-2.0591259 -5.1981063 -1.1884233
-2.0909894 -5.1831918 -0.91825062
-1.9948761 -4.900517 -2.2100153
-2.105288 -5.1717491 -1.4617673
-2.1438253 -5.1679978 -0.78632808
-2.1554153 -5.1501613 -1.6009018
-2.1897113 -5.1386766 -1.4622738
-2.1964145 -5.1544075 -1.3275604
-2.2127066 -5.1452613 -1.1905024
-1.9856781 -4.5776682 -2.2215958
-2.1099489 -4.8641548 -2.2146404
-2.2232802 -5.1254225 -1.6020044
-2.2481315 -5.1384349 -1.3289437
-2.2750857 -5.1099253 -1.4642998
-2.2952695 -5.1095929 -1.055367
-2.3127429 -5.1055188 -0.78771985
-2.3441291 -5.0871458 -1.4663259
-2.2379251 -4.8167944 -2.2184944
-2.3781652 -5.0745339 -1.6069659
-2.3986516 -5.0766792 -0.7891115
-1.7029482 -3.5751209 -2.3484666
-2.8184557 -5.9169855 -2.2145693
-2.0470102 -4.2609844 -2.2375572
-2.1796234 -4.5007472 -2.2264767
-2.6573155 -5.4871435 -2.2190268
-3.3752627 -6.9696465 -2.2205348
-3.106714 -6.3612528 -2.2090392
-2.3482432 -4.7701588 -2.2208071
-3.1325858 -6.3634515 -2.2132094
-6.0650473 -12.122191 -1.9050015
-2.5416288 -5.079946 -2.2180808
-2.9569204 -5.8638773 -2.2190509
-2.7655711 -5.4418197 -2.2217629
-3.7964482 -7.4702787 -2.1936641
-4.0223246 -7.9147367 -2.1036229
-4.6962199 -9.2407618 -1.9529845
-2.152349 -4.200634 -2.2341347
-2.4278984 -4.73841 -2.2238905
-3.5313144 -6.8918929 -2.2205348
-3.2480392 -6.2902665 -2.2090392
-6.3092041 -12.119866 -1.9203105
-4.8261313 -9.2002249 -1.9574281
-3.6236236 -6.852509 -2.2227397
-5.5227785 -10.365005 -1.9295585
-2.6816242 -5.0328016 -2.2268102
-2.8766572 -5.3988347 -2.2265511
-4.9492126 -9.2885523 -1.9829789
-3.6677999 -6.8289657 -2.2227397
-6.5795803 -12.067808 -1.9317229
-2.4162827 -4.3970203 -2.2337978
-3.16643 -5.7620983 -2.221612
-5.0365791 -9.1652946 -1.9703887
-2.7647939 -4.9939857 -2.2289927
-2.9575102 -5.3420849 -2.2224469
-4.3039327 -7.7740979 -2.1054673
-5.1495934 -9.2330227 -1.9918664
-3.8001072 -6.7606473 -2.2238424
-4.0528517 -7.2102966 -2.1652999
-1.9630616 -3.4668765 -2.3627496
-5.7888031 -10.223351 -1.9302069
-2.2244172 -3.9284451 -2.267596
-2.4883823 -4.3608308 -2.2354248
-3.2688694 -5.7286162 -2.2286544
-4.1012459 -7.187336 -2.1663129
-4.3962603 -7.7043414 -2.1017783
-4.6917005 -8.2220936 -2.0121696
-2.5020702 -4.3529921 -2.2354248
-2.6633639 -4.633604 -2.2323699
-3.054142 -5.3134623 -2.2306554
-6.8970151 -11.907555 -1.9339496
-3.9101057 -6.7020807 -2.2249448
-4.7664666 -8.1699181 -2.0105062
-6.9716454 -11.774337 -1.923094
-2.7295668 -4.6099358 -2.2377658
-2.907352 -4.9101954 -2.2282653
-4.2033043 -7.0989156 -2.1597285
-5.9757757 -10.016508 -1.9162647
-2.2974045 -3.8508761 -2.2523353
-6.0204287 -10.019677 -1.9204798
-4.8877053 -8.1345081 -2.0171595
-6.055964 -10.007467 -1.9217767
-2.2655215 -3.7437696 -2.3267012
-3.695823 -6.1073394 -2.2275074
-4.6116009 -7.6206608 -2.1105397
-4.3712635 -7.0172677 -2.1642869
-3.7954373 -6.0504456 -2.228699
-4.3883586 -6.3874907 -2.2221885
-4.9911056 -7.1652379 -2.0690389
-2.4660645 -3.3743901 -2.3482883
-2.3781939 -3.2327869 -2.3800926
-5.0314298 -6.3984036 -2.1308577
-4.8309555 -5.8666725 -2.179189
-5.1866646 -6.0964642 -2.0954025
-5.2506747 -5.9746137 -2.0822334
-5.7559986 -5.5760026 -2.097935
-1.9751493 -12.181468 -2.0274794
-2.1324031 -13.15131 -1.872435
-1.8087907 -11.155474 -2.1292493
-2.0711536 -10.971774 -2.1036983
-2.525552 -13.152094 -1.8821771
-2.3067615 -10.880472 -2.0955515
-2.5433223 -11.803226 -1.9837068
-2.57533 -11.772042 -1.979816
-2.8650815 -13.09652 -1.8841256
-2.604934 -11.721053 -1.9726826
-2.9127927 -13.106281 -1.886909
-3.0362251 -13.06807 -1.8855172
-1.5865815 -6.8287292 -2.1875923
-2.5064282 -10.787797 -2.0866642
-1.4935237 -6.3328614 -2.1985636
-1.7999462 -7.4230776 -2.1902146
-3.2142932 -13.076409 -1.892476
-2.6617262 -10.675602 -2.072963
-1.6129423 -6.2956805 -2.1960025
-1.7422832 -6.8005276 -2.1905711
-2.725244 -10.637247 -2.0688896
-2.7581542 -10.626732 -2.0685194
-2.7780333 -10.566692 -2.0585213
-3.4802639 -13.061446 -1.8997129
-1.5928676 -5.8265371 -2.1985054
-1.7153196 -6.2744536 -2.1979232
-2.1959708 -8.0326233 -2.1799886
-1.5061811 -5.4421782 -2.2049861
-1.8730245 -6.7676668 -2.1911669
-3.1517072 -11.250237 -1.919507
-1.6284301 -5.8127947 -2.1971374
-2.0609965 -7.3568702 -2.1907659
-3.1857653 -11.228333 -1.9175617
-1.7728837 -6.2485857 -2.1947222
-1.8126695 -6.2351866 -2.1940818
-1.6733384 -5.6891823 -1.5524313
-1.7155538 -5.6965599 -1.4096395
-1.731737 -5.6855474 -1.1198
-1.7502592 -5.6787267 -0.97628981
-1.7523786 -5.6856031 -0.83615208
-1.7633185 -5.657887 -1.5514184
-1.8062081 -5.6664257 -1.4091784
-1.8390052 -5.6464601 -0.97564131
-1.6396619 -5.0343986 -2.2115569
-1.8352605 -5.6349621 -1.5514184
-1.8417149 -5.6547799 -1.2641032
-1.8599657 -5.6471519 -0.83559537
-1.791837 -5.3274131 -2.1948013
-1.914946 -5.6283355 -1.2636874
-1.9304098 -5.6158676 -0.97564131
-1.8973802 -5.5197797 -1.6736702
-1.9313463 -5.6185923 -1.2628558
-1.9440758 -5.5983524 -1.5514184
-1.9496295 -5.6143456 -1.2632716
-1.7507517 -4.9909859 -2.2092445
-1.9616535 -5.5922174 -1.5514184
-1.9666097 -5.6063466 -1.2628558
-1.9785663 -5.5842032 -1.5509118
-1.9861732 -5.6056724 -1.2641032
-1.9987003 -5.5790839 -1.5514184
-2.0057294 -5.5987048 -1.2641032
-1.8013326 -4.9788418 -2.2115569
-2.0168753 -5.5745969 -1.5519248
-2.0219769 -5.5886974 -1.2632716
-2.0395246 -5.5823174 -1.2632716
-2.0505221 -5.5581841 -1.5509118
-2.0584731 -5.5797362 -1.4091784
-1.862233 -4.9465265 -2.2077026
-2.1122179 -5.5575314 -1.4087172
-2.1264536 -5.5424919 -0.97531712
-2.1289701 -5.5490513 -1.4082561
-2.1452804 -5.539465 -0.97596562
-1.6897292 -4.3631577 -2.3501847
-2.1402004 -5.5263481 -1.5514184
-2.1492033 -5.5495949 -1.4101006
-2.1612356 -5.5290217 -0.97531712
-2.1956515 -5.6170669 -2.1950853
-2.1666274 -5.5428152 -1.4101006
-2.1802833 -5.5236597 -0.97564131
-2.2736673 -5.6021733 -2.2005577
