# .PCD v0.7 - Point Cloud Data file format
VERSION 0.7
FIELDS x y z
SIZE 4 4 4
TYPE F F F
COUNT 1 1 1
WIDTH 1490
HEIGHT 1
VIEWPOINT 0 0 0 1 0 0 0
POINTS 1490
DATA ascii
2.0767848 -2.0608971 -1.6438998
2.0025008 -1.940558 -1.6537205
2.0910802 -2.0263975 -1.6360624
2.0872002 -2.0353913 -1.6380217
1.9912905 -1.9520594 -1.6537205
2.003036 -1.9201716 -1.645559
2.1007543 -2.0138474 -1.6350827
2.0191278 -1.9007347 -1.6445389
2.1113274 -1.9875281 -1.6292046
2.0347133 -1.9268252 -1.661882
2.0093927 -1.9135185 -1.645559
2.1086838 -2.0080721 -1.6360624
2.0356767 -1.8956438 -1.6496398
2.1207738 -1.9748871 -1.628225
2.0247583 -1.8947355 -1.6445389
2.0489883 -1.8736082 -1.6465793
2.1398966 -1.9567354 -1.6292046
2.0468898 -1.8835306 -1.6496398
2.1363049 -1.9658096 -1.631164
2.1491592 -1.943959 -1.628225
2.0529399 -1.8667219 -1.645559
2.0768783 -1.8452356 -1.6475995
2.1676807 -1.9259105 -1.6292046
2.1580567 -1.9288477 -1.6262656
2.0594959 -1.8517767 -1.6424985
2.0784235 -1.825297 -1.6404581
2.1761167 -1.9110924 -1.6272453
2.0771863 -1.8345103 -1.6435187
2.1847904 -1.8851951 -1.6213672
2.0812385 -1.8168597 -1.6384177
2.1844046 -1.9069208 -1.6292046
2.1088867 -1.7979791 -1.6435187
2.201246 -1.8767223 -1.6252859
2.102237 -1.8031083 -1.6424985
2.1136374 -1.7710392 -1.6353571
2.2078602 -1.8499894 -1.6184282
2.1122749 -1.791339 -1.6424985
2.2021627 -1.8675696 -1.622347
2.1277776 -1.7621279 -1.6384177
2.1414351 -1.7427808 -1.6373975
2.2368145 -1.8204042 -1.6203876
2.1355338 -1.7472919 -1.6363775
2.2387884 -1.8317746 -1.6252859
2.218854 -1.8258325 -1.6145095
2.23911 -1.8009341 -1.6145095
2.141247 -1.7320919 -1.6333169
2.1576276 -1.7144105 -1.6343371
2.245662 -1.7843611 -1.6115705
2.1434245 -1.7129115 -1.6271957
2.2515674 -1.7993335 -1.6194079
2.2625222 -1.765769 -1.61255
2.1637034 -1.6983902 -1.6312765
2.2616973 -1.77531 -1.6154891
2.281997 -1.74914 -1.6154891
2.1622827 -1.6778429 -1.6231149
2.2701995 -1.7615819 -1.6145095
2.1826053 -1.6626995 -1.6271957
2.2788546 -1.7360219 -1.6096112
2.2029934 -1.6384746 -1.6282159
2.2987006 -1.7096568 -1.6096112
2.2922218 -1.7154248 -1.6086314
2.1918573 -1.6504837 -1.6271957
2.2871218 -1.7222185 -1.6086314
2.2057455 -1.6202811 -1.6231149
2.2092285 -1.6329534 -1.6292361
2.2981544 -1.6986831 -1.6056924
2.2195215 -1.6013583 -1.6231149
2.3161547 -1.6710781 -1.6047127
2.3125975 -1.6789671 -1.6056924
2.3033819 -1.6827357 -1.6027533
2.2146995 -1.5785636 -1.6129131
2.2172728 -1.589754 -1.6180141
2.3211029 -1.6641985 -1.6047127
2.3326907 -1.6327606 -1.5998144
2.2192621 -1.563198 -1.6098526
2.3321121 -1.642687 -1.6027533
2.3249581 -1.6467711 -1.600794
2.2446802 -1.5508151 -1.6180141
2.3454897 -1.6204629 -1.6017737
2.2355602 -1.5549124 -1.6149535
2.2533064 -1.5382544 -1.6180141
2.3442566 -1.6099584 -1.597855
2.249027 -1.5169878 -1.6088324
2.3533254 -1.5873379 -1.5949159
2.2651751 -1.4896402 -1.6078122
2.2583978 -1.4936675 -1.6057719
2.3603625 -1.5611053 -1.5900174
2.3629777 -1.5729327 -1.5949159
2.3745513 -1.5426408 -1.5909972
2.2669632 -1.4806353 -1.6057719
2.2809658 -1.4525757 -1.6037314
2.3855124 -1.5191535 -1.5890379
2.2783492 -1.459868 -1.6047516
2.3852463 -1.5389545 -1.5949159
2.2846749 -1.4370664 -1.6006709
2.3939006 -1.5157014 -1.5919769
2.3003042 -1.4184792 -1.6027113
2.3968792 -1.4780321 -1.5821801
2.2931621 -1.4234837 -1.6006709
2.3851085 -1.4903812 -1.5802207
2.400629 -1.4619018 -1.5792412
2.301569 -1.4098507 -1.6006709
2.3046944 -1.3848002 -1.5945498
2.3108788 -1.3978647 -1.601691
2.4049561 -1.4547726 -1.5792412
2.4155447 -1.4234326 -1.5753223
2.4115603 -1.4301726 -1.5753223
2.4278746 -1.402299 -1.5753223
2.4182529 -1.4153786 -1.5743427
2.434638 -1.387004 -1.5743427
2.4320245 -1.3950893 -1.5753223
2.4357073 -1.378057 -1.5723833
2.4596024 -1.3639411 -1.5802207
5.8455129 2.6111538 0.59729522
5.8043938 2.653785 0.59543735
5.816329 2.6371827 0.59580892
5.8277607 2.6215458 0.5961805
5.7763696 2.6813006 0.59413689
5.7901912 2.6656399 0.59469426
5.7676187 2.7374353 0.59562314
5.7685108 2.7169149 0.59487998
5.7729373 2.698102 0.59450841
5.7630653 2.7562535 0.59599471
5.7656264 2.8195622 0.59878147
5.856596 2.6161046 0.44853413
5.8226571 2.6621349 0.44769704
5.8273568 2.6421828 0.44741803
5.8406296 2.6273346 0.44783655
5.8090377 2.6964645 0.44783655
5.8029819 2.6715283 0.44672045
5.7785544 2.7426257 0.4472785
5.790278 2.7271669 0.44755754
5.7856908 2.7040627 0.44658095
5.7793918 2.7640619 0.44797608
5.801651 2.8371792 0.45160341
3.6361799 2.5009475 0.30860263
3.6468797 2.4923983 0.30888164
3.618881 2.5189359 0.30832359
3.6275415 2.5099564 0.30846316
3.5979428 2.5522039 0.30846316
3.6036608 2.5233114 0.30762607
3.5771489 2.5676055 0.30790508
3.5843058 2.557605 0.30790508
5.8736448 2.6237202 0.2999973
5.8955603 2.6137834 0.30074263
5.8323555 2.6665692 0.29906562
5.8498011 2.6523592 0.29953146
5.857646 2.6349893 0.29953146
5.8223376 2.7026381 0.29934511
5.8271704 2.6826639 0.29915881
5.8044252 2.7549045 0.29962462
5.8071523 2.7351146 0.29934511
5.808002 2.7144902 0.29897246
5.7998314 2.7738376 0.29981098
5.8489876 2.8603282 0.3036308
5.8747926 2.6242328 0.14938469
5.9003773 2.6159189 0.14984891
5.8407578 2.6704106 0.14910616
5.861865 2.6578293 0.14943111
5.873373 2.6420639 0.14952396
5.836163 2.7090559 0.14938469
5.841012 2.6890364 0.14929184
5.8145871 2.7597275 0.14943111
5.8137064 2.7382016 0.14919901
5.827239 2.7234809 0.14933828
5.8081775 2.7778292 0.14947754
5.8113775 2.8218513 0.14998817
8.3818846 2.7899067 0
8.4708281 2.7949009 0
8.5674601 2.8019357 0
8.1961412 2.7838113 0
8.2820883 2.7856197 0
7.9138346 2.7620902 0
8.018836 2.776773 0
8.093255 2.7756751 0
7.7748241 2.7654343 0
7.8409877 2.7643278 0
7.7112679 2.7944877 0
7.7171607 2.7722642 0
7.7124281 2.8437397 0
7.7147055 2.8201292 0
7.701036 2.8915625 0
5.9055929 2.6379912 0
5.9220791 2.6255405 0
5.8677964 2.6827729 0
5.8834815 2.6676304 0
5.8895473 2.6493397 0
5.8540626 2.7173645 0
5.8553033 2.6956155 0
5.8414493 2.7724769 0
5.8460321 2.7534268 0
5.8469281 2.7326829 0
5.8471265 2.8392103 0
9.1578531 2.817323 -0.22245228
9.2560749 2.8175018 -0.2246341
8.9359369 2.8037798 -0.21743873
9.048749 2.8114455 -0.21999194
8.6309814 2.7927227 -0.21061477
8.7244282 2.7960711 -0.21270375
8.8298855 2.8010039 -0.21507125
8.3321981 2.7733688 -0.20388363
8.4324694 2.7822447 -0.20615828
8.5214424 2.786886 -0.20815443
8.1428156 2.7656994 -0.19965927
8.2248974 2.7663841 -0.20146972
7.870172 2.7468512 -0.19353162
7.9505467 2.7531257 -0.19534206
8.0513563 2.7613053 -0.19761671
7.6973748 2.7378862 -0.18967862
7.7709908 2.7396505 -0.19130339
7.5437651 2.7337861 -0.18628985
7.6228762 2.738394 -0.18805388
7.3139768 2.7214992 -0.18118347
7.3933067 2.7260728 -0.1829475
7.462863 2.7280676 -0.18447942
7.162601 2.7150996 -0.17784113
7.2328677 2.715776 -0.17937303
6.9532399 2.7025731 -0.17319897
7.0185947 2.7054403 -0.17463803
7.0863609 2.7074373 -0.17612353
6.8255219 2.6996634 -0.17041367
6.887958 2.6993589 -0.1717599
6.6520967 2.6970794 -0.16665351
6.6999426 2.6960776 -0.16767479
6.7561989 2.6954486 -0.16888176
6.570375 2.7067726 -0.16498235
6.6070504 2.7016716 -0.16572508
6.4902873 2.7429399 -0.1635897
6.5200481 2.7340846 -0.16414675
6.5396843 2.7181904 -0.16442528
6.4877276 2.7846668 -0.16391465
6.4941225 2.7646201 -0.16386823
6.4839168 2.8287139 -0.1642396
6.4634085 2.7956312 -0.16349685
5.925909 2.6470664 -0.15068449
5.9387627 2.6329372 -0.15082376
5.8825812 2.6895325 -0.15017386
5.8946433 2.6726913 -0.15026671
5.9116659 2.6592894 -0.15049881
5.865181 2.7225254 -0.15012744
5.8737049 2.704087 -0.15012744
5.8543267 2.7785885 -0.15045239
5.8607373 2.7603526 -0.15040597
5.8616548 2.7395658 -0.15022027
5.8568797 2.8011215 -0.15073092
10.219188 2.5991466 -0.49173471
10.241459 2.5762746 -0.49248004
10.246673 2.5471897 -0.49238688
10.215649 2.660979 -0.49229372
10.224976 2.6329365 -0.49238688
10.161074 2.7112482 -0.49043038
10.207239 2.6930575 -0.49229372
9.7186747 2.6860983 -0.47021317
9.8639011 2.6929123 -0.47682798
10.016041 2.7044122 -0.48381552
9.5151024 2.6871264 -0.46108282
9.6303205 2.6906466 -0.46630013
9.2577877 2.7001557 -0.44971645
9.3300829 2.6947596 -0.45288411
9.4187222 2.6901062 -0.45679712
9.0831671 2.7060838 -0.44198361
9.1673393 2.7033083 -0.44571027
8.8314877 2.7169199 -0.43089673
8.9140501 2.7133911 -0.43453023
8.9923668 2.7098219 -0.43797743
8.6789303 2.7231402 -0.42418873
8.7589979 2.7214198 -0.42772904
8.4604664 2.7375491 -0.4146857
8.5384703 2.736474 -0.4181329
8.613203 2.7322681 -0.42139372
8.2363033 2.7414501 -0.40481001
8.3136492 2.7430408 -0.40825722
8.3853626 2.7423818 -0.41142488
8.0718508 2.7415962 -0.39754301
8.1632681 2.7456555 -0.40164235
7.8260212 2.7314417 -0.38654932
7.9176269 2.7417262 -0.39074183
7.9843106 2.7383113 -0.39363
7.6722679 2.728956 -0.37974814
7.7627621 2.7367494 -0.38384748
7.5113101 2.7220249 -0.37257427
7.5865707 2.7253518 -0.37592831
7.2836642 2.7102201 -0.3624191
7.3572793 2.7127888 -0.36567995
7.4380064 2.7189813 -0.36931345
7.1399403 2.7065098 -0.35608375
7.2101297 2.7072384 -0.35915825
6.941977 2.6981952 -0.34732607
6.9923596 2.6953275 -0.34946889
7.0637794 2.6988096 -0.35263658
6.7883668 2.6849678 -0.34043172
6.8618736 2.6891365 -0.34369254
6.6059341 2.6783631 -0.33241937
6.6722317 2.6849267 -0.3354007
6.7265601 2.6836238 -0.33772987
6.5022058 2.678689 -0.32794735
6.5461798 2.6767812 -0.32981071
6.3396101 2.6792605 -0.32095984
6.393127 2.6808622 -0.32328904
6.4439492 2.6783986 -0.32543185
6.2180667 2.6689229 -0.31555617
6.271914 2.6700234 -0.31788534
6.0463977 2.6579609 -0.30800965
6.1014061 2.6618376 -0.31043199
6.1610799 2.6648643 -0.31304064
5.9283681 2.6481647 -0.30279231
5.9795742 2.6510308 -0.30502832
5.7760305 2.6408172 -0.29617745
5.8316059 2.6441095 -0.29859981
5.8776875 2.6440046 -0.3005563
5.7045503 2.647963 -0.2932893
5.7328029 2.6392198 -0.29431412
5.6257448 2.6700988 -0.2904011
5.6444874 2.6585009 -0.2909601
5.6668291 2.64851 -0.29170543
5.6080008 2.7025685 -0.29030794
5.610589 2.6833301 -0.29002845
5.5887532 2.7330661 -0.29012161
5.5909734 2.714829 -0.2898421
5.5603919 2.7589943 -0.28946945
9.0055532 2.4890022 -0.65333909
9.0094776 2.4596488 -0.65306014
9.004756 2.4313569 -0.65222305
9.001111 2.5419719 -0.6540367
8.9947243 2.5130653 -0.65306014
8.9426508 2.608242 -0.65138596
8.9609499 2.5881448 -0.65222305
8.976264 2.5637348 -0.65278113
8.7611322 2.610142 -0.63924831
8.8908615 2.6217792 -0.64817721
8.4419775 2.597091 -0.61762381
8.5355368 2.5981736 -0.6239019
8.6669254 2.6117511 -0.63297021
8.2940874 2.6023901 -0.60785794
8.3699112 2.6005306 -0.61288035
8.1054487 2.6226764 -0.59572023
8.1602392 2.6152554 -0.59920812
8.2193098 2.6073179 -0.60297495
7.9128208 2.633779 -0.58316416
7.9784226 2.6324346 -0.58748901
8.0345898 2.6276639 -0.59111631
7.7889037 2.6454935 -0.57521188
7.8496685 2.6401787 -0.57911825
7.6176543 2.6587172 -0.56419033
7.6599498 2.6524975 -0.56684113
7.7357264 2.6530566 -0.57186353
7.5002379 2.6677663 -0.55665666
7.5490537 2.6614068 -0.55972594
7.3661022 2.6694028 -0.54786736
7.4298577 2.6690555 -0.55205274
7.1915436 2.6759422 -0.53656679
7.2462497 2.6718497 -0.54005462
7.3117728 2.6728363 -0.54437953
7.0537996 2.6738567 -0.52749842
7.1163321 2.6720195 -0.53154433
6.8749456 2.6721416 -0.51577938
6.9326439 2.6723089 -0.51954621
6.9983182 2.6737995 -0.52387112
6.7680588 2.6769352 -0.50894326
6.8061585 2.6673021 -0.51117545
6.5748172 2.6657467 -0.49610806
6.6373 2.6708703 -0.50029343
6.6915236 2.6696458 -0.50378126
6.4620562 2.6621487 -0.48871386
6.5225573 2.6671219 -0.4927597
6.2979603 2.6616583 -0.47811085
6.3495264 2.6625788 -0.4814592
6.4002342 2.6602285 -0.48466799
6.1839938 2.6542981 -0.47057718
6.2414069 2.6570363 -0.47434402
6.023612 2.6479445 -0.4601137
6.0803571 2.6526544 -0.46388054
6.1307769 2.6517575 -0.46708933
5.9021378 2.6364477 -0.45202196
5.9587235 2.6417866 -0.45578882
5.7500777 2.6289515 -0.44211653
5.8110032 2.634768 -0.4461624
5.8442693 2.6289718 -0.44811559
5.6570263 2.6259031 -0.43611747
5.7069306 2.6273088 -0.43932629
5.5262165 2.6228607 -0.42774671
5.5736837 2.6251531 -0.43081596
5.6175971 2.6255004 -0.43360624
5.4404593 2.6218281 -0.4223057
5.4806128 2.6211674 -0.42481691
5.3158193 2.6180117 -0.41435343
5.357162 2.6198108 -0.4170042
5.4003525 2.6222684 -0.41979444
5.2359452 2.6173954 -0.40933099
5.1987753 2.6158507 -0.40695927
7.9806242 2.4551601 -0.77899188
7.9802547 2.4291487 -0.77824867
7.9850984 2.4062848 -0.77806294
7.9534874 2.495522 -0.77769136
7.9585233 2.4727125 -0.77750564
7.9025397 2.5570214 -0.77490455
7.9267163 2.5404143 -0.77657664
7.9361176 2.5174839 -0.77676243
7.6654458 2.5514405 -0.75372523
7.7515235 2.5575705 -0.76152813
7.8357935 2.5626488 -0.76914531
7.4894438 2.5437822 -0.73793358
7.5686827 2.545671 -0.74499339
7.3080578 2.5506618 -0.72214192
7.3613133 2.5490851 -0.72678655
7.421587 2.5453188 -0.73198855
7.1896043 2.557277 -0.7119239
7.2586927 2.5590405 -0.71805471
7.0900526 2.5693653 -0.70356357
7.1478014 2.5677311 -0.70857972
6.9390426 2.5819879 -0.69074452
6.9933825 2.5786121 -0.69538909
7.0417037 2.5741117 -0.6994763
6.8523817 2.597506 -0.68368471
6.8977952 2.5899639 -0.6874004
6.691175 2.6007142 -0.66975093
6.7578697 2.6049392 -0.67569596
6.7953334 2.5962462 -0.6786685
6.5959983 2.608881 -0.66176224
6.6505151 2.6063061 -0.66640681
6.4774847 2.6262834 -0.65210146
6.513896 2.621212 -0.655074
6.5530887 2.6144159 -0.65823233
6.3724952 2.6252525 -0.64299804
6.425426 2.627404 -0.64764261
6.2879267 2.6367478 -0.63612407
6.3366342 2.6337936 -0.64021128
6.1485023 2.6390643 -0.62423384
6.1911182 2.635628 -0.62776375
5.986691 2.6317141 -0.61011428
6.041472 2.6356902 -0.6149447
6.1008983 2.6388338 -0.62014657
5.8800588 2.6265852 -0.60082507
5.9310622 2.629523 -0.60528392
5.7373853 2.6231484 -0.58856338
5.789124 2.6248477 -0.59302217
5.8313932 2.6231797 -0.59655207
5.6463203 2.6209335 -0.58076042
5.6870856 2.6181729 -0.58410454
7.2018127 2.3971205 -0.88762367
7.2048244 2.3562942 -0.88646221
7.1701069 2.4353197 -0.88553298
7.1867156 2.4171991 -0.88669449
7.1306968 2.4887593 -0.88321
7.1498976 2.4758759 -0.88483608
7.1647291 2.4572263 -0.88576525
7.0708852 2.5150497 -0.8776347
7.1209698 2.5104866 -0.88297766
6.9400439 2.5150037 -0.86323202
7.0124736 2.5191171 -0.87136257
6.7321067 2.5049877 -0.84000188
6.7842402 2.5014968 -0.84557712
6.8658285 2.5098202 -0.85486919
6.6386642 2.5164931 -0.83024526
6.6725736 2.5053983 -0.83349741
6.5155153 2.532439 -0.81746864
6.5503645 2.5249527 -0.82095319
6.5930858 2.518975 -0.82536691
6.4338732 2.5447567 -0.80910581
6.4843764 2.5411973 -0.81444877
6.3253536 2.5646021 -0.79818761
6.3689022 2.5628662 -0.80283368
6.400465 2.5535252 -0.80585361
6.2429729 2.5718939 -0.7895925
6.2791033 2.5675716 -0.79330933
6.1981764 2.5762444 -0.78494644
6.822381 -0.47347784 -0.96112949
6.7932911 -0.49171638 -0.95723265
6.770627 1.1901881 -0.96613973
9.9618111 -4.1671157 -0.50356686
9.9730387 -4.0719523 -0.50235569
9.9653244 -4.1013069 -0.50254202
9.9641829 -4.1354513 -0.50310105
9.9722252 -4.0047655 -0.50114453
9.9795218 -4.0400949 -0.50207621
9.9800673 -3.9091361 -0.49984023
9.9758568 -3.9416668 -0.50021291
9.9847574 -3.9734175 -0.50114453
9.9844427 -3.8426688 -0.49890852
9.9904356 -3.8770409 -0.49974707
9.9864473 -3.7417278 -0.49732471
9.9989357 -3.7822719 -0.49853587
9.9939337 -3.8123155 -0.49881536
10.007189 -3.685895 -0.49732471
9.9837475 -3.708956 -0.49667254
9.9988537 -3.5860155 -0.49536821
9.9994421 -3.6197474 -0.49592721
10.013088 -3.6523843 -0.49704519
10.008036 -3.5243857 -0.49480921
10.005685 -3.5549946 -0.49518186
10.014437 -3.4267552 -0.49359804
10.014271 -3.4579678 -0.49406388
10.017172 -3.492269 -0.49471605
10.021337 -3.3628194 -0.49294588
10.037211 -3.4032669 -0.49425021
10.023138 -3.2683232 -0.49164155
10.026679 -3.302423 -0.49229372
10.025001 -3.3329306 -0.49266636
10.032281 -3.2074978 -0.49117571
10.03089 -3.2379556 -0.49154836
10.033175 -3.1115439 -0.48987138
10.044318 -3.1496239 -0.49089617
10.030324 -3.1741009 -0.49061671
10.05093 -3.0537059 -0.48987138
10.038005 -3.082341 -0.489685
10.058029 -2.9602387 -0.48893967
10.04485 -2.9906826 -0.48875338
10.055591 -3.0244753 -0.489685
10.057634 -2.8972828 -0.48810118
10.062932 -2.9292665 -0.48875338
10.058461 -2.8064804 -0.48698318
10.060695 -2.8355141 -0.48744902
10.062844 -2.8645775 -0.48791489
10.059997 -2.7407837 -0.48623785
10.061451 -2.7732744 -0.48670369
10.078741 -2.6553922 -0.48605153
10.06836 -2.6789837 -0.48586518
10.064227 -2.7098844 -0.48605153
10.07394 -2.5865483 -0.48502669
10.067698 -2.6186867 -0.48511985
10.073925 -2.4967763 -0.48400185
10.068851 -2.5253844 -0.48409501
10.077251 -2.5574236 -0.48484036
10.078854 -2.4346073 -0.48353601
10.085599 -2.4660647 -0.48418817
10.085275 -2.3469167 -0.48288384
10.085344 -2.3729258 -0.48316336
10.079783 -2.4050615 -0.48325652
10.083436 -2.2834985 -0.48213851
10.080914 -2.3125415 -0.48232484
10.085792 -2.1898401 -0.48130003
10.090956 -2.2223337 -0.48185903
10.080025 -2.2531524 -0.48167267
10.090046 -2.1318243 -0.48092735
10.102014 -2.1619959 -0.48176587
10.090642 -2.0401289 -0.48008886
10.101795 -2.075438 -0.48092735
10.092782 -2.0993018 -0.48074102
10.106145 -1.9827466 -0.48027518
10.097001 -2.0084183 -0.48008886
10.099167 -1.8918321 -0.47915715
10.109546 -1.9230134 -0.47990248
10.099874 -1.9522424 -0.47971618
10.116114 -1.8329382 -0.4794367
10.114885 -1.8619038 -0.47962302
10.117638 -1.7439824 -0.47878453
10.118631 -1.7732642 -0.47906399
10.110021 -1.7990485 -0.47887769
10.112335 -1.6795266 -0.47803915
10.121097 -1.7118552 -0.47869131
10.141839 -1.5972383 -0.47878453
10.129449 -1.6242881 -0.47841182
10.12093 -1.6519247 -0.47822553
10.131385 -1.5340366 -0.47785282
10.136662 -1.5656151 -0.47831869
10.132771 -1.4421066 -0.47729382
10.144264 -1.4744638 -0.47803915
10.133916 -1.5036763 -0.47775966
10.142647 -1.3857629 -0.47738698
10.126618 -1.4141927 -0.47682798
10.148408 -1.2964405 -0.4771075
10.154654 -1.3260688 -0.47757336
10.142989 -1.3533638 -0.47720066
10.151525 -1.2392572 -0.4769212
10.150229 -1.2660768 -0.47701433
10.144485 -1.1450583 -0.47608265
10.152746 -1.1783043 -0.47664165
10.155157 -1.2091316 -0.4769212
10.160655 -1.0894481 -0.47654849
10.159559 -1.1180364 -0.47664165
10.143929 -0.99819601 -0.47533733
10.142909 -1.0284907 -0.47543049
10.154092 -1.0564884 -0.47608265
10.131769 -0.93632877 -0.47449884
10.13889 -0.96733493 -0.47496465
10.143091 -0.85352194 -0.47468516
10.124899 -0.87869173 -0.47393984
10.136334 -0.90821028 -0.474592
10.134312 -0.78868949 -0.474033
10.129792 -0.82036221 -0.47393984
10.140563 -0.70376188 -0.474033
10.136437 -0.73370212 -0.47393984
10.132489 -0.76008731 -0.47384667
10.150541 -0.64395392 -0.47431248
10.144716 -0.67203289 -0.47412616
10.147601 -0.55845624 -0.47393984
10.146002 -0.58679152 -0.47393984
10.150413 -0.61371332 -0.47421932
10.148741 -0.49813178 -0.47384667
10.1513 -0.52667743 -0.474033
10.156765 -0.40793782 -0.474033
10.161498 -0.43832999 -0.47431248
10.154247 -0.46642944 -0.474033
10.160881 -0.35127467 -0.47412616
10.163854 -0.37979698 -0.47431248
10.161609 -0.26076689 -0.474033
10.156796 -0.29080147 -0.47384667
10.177853 -0.32163006 -0.47487149
10.162907 -0.20401002 -0.474033
10.158343 -0.23052505 -0.47384667
10.182299 -0.1137421 -0.47487149
10.167933 -0.14375533 -0.47421932
10.167432 -0.17569807 -0.47421932
10.182775 -0.056871936 -0.47487149
10.174585 -0.085240401 -0.47449884
10.174892 0.03197147 -0.47449884
10.186929 0.003558771 -0.47505784
10.17691 -0.024866935 -0.474592
10.186526 0.090676956 -0.47505784
10.18674 0.06222735 -0.47505784
10.185378 0.1777885 -0.47505784
10.187833 0.14937106 -0.475151
10.194223 0.11921444 -0.47543049
10.20008 0.2403814 -0.47580317
10.200748 0.21011795 -0.47580317
10.207637 0.32791927 -0.47626901
10.204516 0.29930234 -0.47608265
10.195374 0.2687574 -0.47561681
10.20957 0.38686275 -0.47645533
10.196697 0.35607755 -0.47580317
10.207885 0.47424838 -0.47654849
10.213083 0.44769922 -0.47673482
10.208304 0.41893312 -0.47645533
10.212964 0.53345644 -0.4769212
10.206432 0.50453669 -0.47654849
10.215678 0.62660676 -0.47729382
10.213607 0.59428 -0.4771075
10.213233 0.5656473 -0.47701433
10.221986 0.68432039 -0.47775966
10.21987 0.65551865 -0.47757336
10.22957 0.77455717 -0.47841182
10.227839 0.74390918 -0.47822553
10.228007 0.71342218 -0.47813237
10.221103 0.83134526 -0.47822553
10.227228 0.80489874 -0.47841182
10.235184 0.9242717 -0.47925031
10.22594 0.89285845 -0.47869131
10.228544 0.8625105 -0.47869131
10.229519 0.9849931 -0.47925031
10.220628 0.95173693 -0.47869131
10.236805 1.0723209 -0.4799957
10.22404 1.0403221 -0.47925031
10.228894 1.0119656 -0.47934353
10.232246 1.1332693 -0.48008886
10.239344 1.1051166 -0.48027518
10.23628 1.2206056 -0.48074102
10.225758 1.1904005 -0.48008886
10.230824 1.1638479 -0.48018202
10.228857 1.2813283 -0.48074102
10.230412 1.2525131 -0.48064786
10.237086 1.3731976 -0.48167267
10.233192 1.3417754 -0.48130003
10.240633 1.3154912 -0.48148635
10.230988 1.4324094 -0.48176587
10.244843 1.4051925 -0.48223168
10.229687 1.5251861 -0.48232484
10.230213 1.4942517 -0.48213851
10.228414 1.464825 -0.48185903
10.244701 1.5859646 -0.48344284
10.235264 1.5552506 -0.48279068
10.237082 1.647048 -0.48353601
10.239668 1.6181443 -0.48344284
10.242319 1.7378774 -0.48446769
10.237279 1.7076218 -0.48400185
10.230179 1.6770898 -0.48344284
10.238564 1.8292987 -0.48502669
10.239697 1.8000052 -0.48484036
10.242715 1.771065 -0.48474717
10.235716 1.88969 -0.48539934
10.249141 1.8607364 -0.48577201
10.248257 1.9846377 -0.48679686
10.248212 1.9530964 -0.48651734
10.240216 1.9201053 -0.48586518
10.248054 2.0477667 -0.48735589
10.256045 2.0177338 -0.48744902
10.245811 2.1385984 -0.48810118
10.254068 2.1085885 -0.48819435
10.246573 2.0753803 -0.48754218
10.249193 2.171062 -0.48856705
10.257049 2.2946057 -0.49015087
10.24589 2.2339675 -0.48903283
10.229211 2.354084 -0.48949867
10.226621 2.4438705 -0.49033722
10.236218 2.385808 -0.49015087
10.242983 2.5121284 -0.49182788
8.7899561 -4.0410695 -0.67649829
8.7998466 -3.9566536 -0.67468464
8.8033009 -3.9877977 -0.67580074
8.7885008 -4.0107093 -0.67552167
8.8078938 -3.8994431 -0.67356849
8.804944 -3.925739 -0.67412657
8.8052711 -3.8359523 -0.6716153
8.8109674 -3.8677437 -0.67287099
8.8212318 -3.7534792 -0.67035973
8.8143826 -3.77967 -0.67063874
8.8122864 -3.8097651 -0.67133629
8.843996 -3.6995234 -0.67035973
8.8256264 -3.7226458 -0.66980165
8.8383684 -3.6086712 -0.66756946
8.8319473 -3.6348567 -0.66784847
8.8303375 -3.6648693 -0.66854608
8.8478975 -3.5532446 -0.66673237
8.8397894 -3.5786877 -0.66687191
8.8575268 -3.4694436 -0.66519773
8.8564711 -3.4993746 -0.66589528
8.8497486 -3.5217423 -0.66603482
8.8630638 -3.4110885 -0.66408163
8.8628035 -3.4394345 -0.66477919
8.8762608 -3.3257625 -0.66282606
8.8825626 -3.3599844 -0.66408163
8.876873 -3.386198 -0.66436064
8.8834629 -3.2719989 -0.66198897
8.8761616 -3.2974882 -0.66212845
8.8998518 -3.1918666 -0.66115189
8.8959694 -3.2202961 -0.66157037
8.8899488 -3.2427068 -0.6617099
8.8955059 -3.132602 -0.65947771
8.901763 -3.1627741 -0.66059381
8.9041595 -3.046839 -0.65808254
8.9012747 -3.0736458 -0.65850115
8.9034195 -3.1039834 -0.65933818
8.9126263 -2.9907742 -0.65738505
8.9239712 -3.025806 -0.65891963
8.9132185 -2.9064033 -0.65557134
8.91782 -2.9372053 -0.65654796
8.9152632 -2.9639852 -0.65696645
8.9203081 -2.8519807 -0.65487379
8.9293976 -2.8823955 -0.65612936
8.9219894 -2.766937 -0.65319961
8.9284821 -2.7997282 -0.65431571
8.9230242 -2.8236952 -0.65445518
8.9282331 -2.7126048 -0.65250206
8.9182386 -2.7384975 -0.65236253
8.9343395 -2.629519 -0.65124643
8.9375076 -2.66099 -0.65208352
8.9434156 -2.6899602 -0.65306014
8.9416666 -2.5758083 -0.65068835
8.9382715 -2.6018836 -0.65096742
8.9437151 -2.4954474 -0.64929324
8.950593 -2.5226421 -0.65026987
8.9382019 -2.5444272 -0.64985126
8.9491673 -2.4381452 -0.64859569
8.9457397 -2.4657469 -0.6488747
8.9480562 -2.3574965 -0.64706105
8.9441977 -2.3798671 -0.64720058
8.9505825 -2.4100254 -0.64817721
8.9568949 -2.2997396 -0.64664251
8.9631414 -2.3313828 -0.64761913
8.95648 -2.2198229 -0.64524734
8.9541178 -2.2457964 -0.64552641
8.9652157 -2.2752092 -0.64678204
8.9636784 -2.1652303 -0.64482886
8.9634094 -2.1916742 -0.64524734
8.9484673 -2.0823734 -0.64245707
8.9666576 -2.1097162 -0.64413124
8.9502831 -2.13556 -0.64343369
8.9528847 -2.0274734 -0.64189911
8.9413528 -2.0511284 -0.64148051
8.9900732 -1.9519361 -0.64329416
8.9589119 -1.9730232 -0.64148051
8.9624052 -2.0033348 -0.64217812
8.985219 -1.8983965 -0.64217812
8.9704618 -1.9198256 -0.64148051
8.9701538 -1.8135884 -0.63994592
8.9761381 -1.8441693 -0.64078301
8.9813709 -1.8681278 -0.64148051
8.9882812 -1.7634305 -0.64050394
9.0012455 -1.790459 -0.64175957
8.9873457 -1.6835595 -0.63938785
8.990449 -1.7101415 -0.63994592
8.9912119 -1.7379451 -0.64036441
9.0050306 -1.6316211 -0.63994592
9.0004387 -1.6567613 -0.63994592
8.9891624 -1.5494666 -0.63785315
8.9926615 -1.5759408 -0.63841122
8.9963627 -1.6008763 -0.6389693
8.9984598 -1.4945264 -0.63785315
9.0018559 -1.5225497 -0.63841122
9.010664 -1.4190897 -0.63785315
9.018486 -1.4461418 -0.63869023
9.0085058 -1.4703563 -0.63827175
9.0031452 -1.3632051 -0.63673711
9.0187798 -1.3929573 -0.63813221
9.012948 -1.2827322 -0.63659757
9.0110769 -1.3097557 -0.63673711
9.0071507 -1.3364863 -0.63673711
9.0140409 -1.2315646 -0.63617909
9.0063953 -1.2577523 -0.63590002
9.0046539 -1.1503282 -0.63478392
9.0211906 -1.1780529 -0.63617909
8.9980888 -1.2006015 -0.63478392
9.0089588 -1.0997772 -0.63464439
9.0159473 -1.1245937 -0.635342
9.0205507 -1.0181942 -0.63478392
8.9994717 -1.0444579 -0.63352829
9.0102015 -1.0728066 -0.63450491
9.0181618 -0.96694744 -0.63422585
8.9995613 -0.99038124 -0.63310975
9.0083876 -0.88645494 -0.63297021
9.0196114 -0.91458833 -0.63394684
9.02314 -0.93881798 -0.63436538
9.0234213 -0.83390069 -0.63366783
9.0209084 -0.86067009 -0.63366783
9.0398998 -0.76069051 -0.63436538
9.041852 -0.7846992 -0.63464439
9.017767 -0.80798721 -0.63310975
9.0345545 -0.70310241 -0.63366783
9.0342903 -0.7316429 -0.6338073
9.0381374 -0.62725282 -0.63352829
9.0342474 -0.65392268 -0.63338882
9.0384722 -0.67801976 -0.6338073
9.0297537 -0.57285082 -0.6326912
9.0360823 -0.59859186 -0.63324922
9.0402126 -0.497513 -0.63310975
9.0367956 -0.52264088 -0.63297021
9.0294228 -0.54593611 -0.63255173
9.0449982 -0.44395667 -0.63324922
9.0357542 -0.4687998 -0.6326912
9.0485916 -0.36342898 -0.63324922
9.0514603 -0.39044702 -0.63352829
9.0383768 -0.41517258 -0.6326912
9.0564623 -0.31309351 -0.63366783
9.0535583 -0.33830816 -0.63352829
9.0549011 -0.23236661 -0.63338882
9.0501833 -0.25911781 -0.63310975
9.055357 -0.28615808 -0.63352829
9.0460844 -0.18159094 -0.6326912
9.063529 -0.20568024 -0.63394684
9.0692863 -0.10130912 -0.63422585
9.0669518 -0.12818955 -0.63408631
9.0625153 -0.15660459 -0.6338073
9.0657215 -0.050633065 -0.63394684
9.0695343 -0.075982533 -0.63422585
9.0658178 0.028486544 -0.63394684
9.0838184 0.003173403 -0.63520247
9.0638409 -0.022147186 -0.6338073
9.0714893 0.080751285 -0.63436538
9.0856447 0.055501133 -0.635342
9.0764503 0.15843187 -0.63478392
9.0828428 0.13317002 -0.63520247
9.0871887 0.10626842 -0.63548148
9.0852871 0.2141095 -0.63548148
9.0699253 0.18682492 -0.63436538
9.1070528 0.29256311 -0.63715565
9.0839033 0.26643431 -0.63548148
9.0667028 0.23900481 -0.63422585
9.079298 0.34403431 -0.635342
9.0822735 0.3171609 -0.63548148
9.0919685 0.42240402 -0.6364581
9.089057 0.39842656 -0.63617909
9.0961142 0.37329054 -0.63659757
9.0893841 0.47476822 -0.6364581
9.0926676 0.44947976 -0.63659757
9.1006317 0.55821234 -0.63757414
9.1043329 0.52973676 -0.63771367
9.0898399 0.50342953 -0.63659757
9.0973721 0.60903215 -0.63757414
9.1030197 0.58388209 -0.63785315
9.0956898 0.68870264 -0.63785315
9.0996847 0.66185433 -0.63799274
9.093646 0.63429838 -0.63743466
9.1016445 0.74029285 -0.63855076
9.0955973 0.71583766 -0.63799274
9.1086044 0.82253778 -0.63952732
9.0990782 0.7944687 -0.63869023
9.1053734 0.76780039 -0.6389693
9.1035633 0.87657559 -0.63952732
9.0943518 0.84685904 -0.63869023
9.0958996 0.95280945 -0.63952732
9.1026573 0.92621851 -0.63980639
9.0992517 0.9002077 -0.63938785
9.0920687 1.0069892 -0.63966686
9.0988121 0.98202085 -0.63994592
9.0793514 1.0826498 -0.63938785
9.0763941 1.0566008 -0.6389693
9.0969706 1.0348619 -0.64022493
9.0826654 1.1377494 -0.6400854
9.0798664 1.1116513 -0.63966686
9.092164 1.2196183 -0.64148051
9.0898094 1.1918551 -0.64106202
9.0849829 1.1670387 -0.64050394
9.0770874 1.2708554 -0.64092249
9.0766459 1.2449616 -0.64064342
9.0910683 1.3554248 -0.6427362
9.0832052 1.3267167 -0.64189911
9.0809488 1.300495 -0.64148051
9.0813847 1.4058735 -0.64259666
9.0694942 1.3781117 -0.64148051
9.0768223 1.4603734 -0.64287567
9.0966291 1.4375134 -0.64399177
9.067935 1.5386122 -0.64315468
9.0741644 1.5136093 -0.64329416
9.0724487 1.4872968 -0.64287567
9.0620184 1.6190884 -0.64371276
9.0586452 1.5923917 -0.64315468
9.0807505 1.5701501 -0.64441031
9.0682392 1.6741538 -0.64482886
9.0692406 1.646525 -0.64454985
9.0669947 1.7558792 -0.64580542
9.0643253 1.7274722 -0.64524734
9.0733337 1.7013074 -0.64552641
9.0642414 1.8112173 -0.6463635
9.0715332 1.7846977 -0.64650303
9.0659971 1.892337 -0.64761913
9.0618019 1.8634175 -0.64692152
9.0712023 1.8373163 -0.64720058
9.0608015 1.9457754 -0.64803767
9.0642462 1.9200577 -0.64789808
9.0632992 2.0275519 -0.64943278
9.0634308 1.9993596 -0.64901423
9.0663385 1.9767836 -0.6488747
9.0487995 2.0824318 -0.64929324
9.0510483 2.0546882 -0.64901423
9.0582047 2.1646526 -0.65124643
9.050621 2.136142 -0.65026987
9.0584946 2.1113098 -0.65040934
9.0645761 2.2231197 -0.65264159
9.053298 2.1935668 -0.65138596
9.0181618 2.2936778 -0.65068835
9.0241375 2.2700531 -0.65068835
9.0343132 2.2458129 -0.65096742
9.0241098 2.3506062 -0.65208352
9.0132513 2.3209169 -0.65082794
9.0273514 2.4087408 -0.65333909
9.032114 2.3830149 -0.65319961
7.8241358 -3.8771286 -0.81466234
7.8186235 -3.9016302 -0.81521964
7.8237128 -3.9314964 -0.81689179
7.8356009 -3.8267579 -0.81354761
7.836719 -3.8561437 -0.81484812
7.8500738 -3.7510223 -0.81168985
7.8420205 -3.7724237 -0.81187564
7.8422084 -3.7995179 -0.81299031
7.8577785 -3.6975896 -0.81020349
7.8546209 -3.7229304 -0.8109467
7.8686681 -3.6175191 -0.8079741
7.8633213 -3.6433616 -0.80853146
7.8621387 -3.669517 -0.8094604
7.8805366 -3.5433066 -0.80611628
7.8851218 -3.5718727 -0.80760252
7.8678703 -3.5905714 -0.80685943
7.8898878 -3.4930224 -0.80500156
7.8843541 -3.5152881 -0.80537313
7.9050002 -3.4437559 -0.80444425
7.891705 -3.464216 -0.80407262
7.9030113 -3.3627715 -0.80128592
7.8990803 -3.387182 -0.80184323
7.9109302 -3.4200869 -0.80407262
7.9160576 -3.3113585 -0.80054271
7.9172063 -3.3394747 -0.80165744
7.929338 -3.2375174 -0.79905647
7.9276328 -3.2626791 -0.79979968
7.9179177 -3.2861865 -0.79979968
7.9312229 -3.1851153 -0.79738444
7.9241428 -3.2079985 -0.79757023
7.9470463 -3.1128132 -0.79626977
7.9359231 -3.1356471 -0.79608399
7.9393396 -3.1594467 -0.79719871
7.9412179 -3.0563016 -0.79385453
7.9456477 -3.0835092 -0.79515505
7.971837 -2.9868925 -0.79422611
7.9568267 -3.0098085 -0.79366881
7.948391 -3.0320165 -0.79366881
7.9584966 -2.9313111 -0.79125357
7.9614806 -2.957685 -0.79236829
7.9645295 -2.8564203 -0.78939569
7.9653811 -2.8834279 -0.79032463
7.9639239 -2.9049292 -0.79088199
7.9639444 -2.8045475 -0.78772366
7.9710937 -2.8321095 -0.78920996
7.9697514 -2.7271018 -0.78586578
7.9696345 -2.7519467 -0.78660899
7.9764767 -2.7808251 -0.78809524
7.9839058 -2.6791272 -0.78568006
7.97545 -2.7041957 -0.78568006
7.9894876 -2.605195 -0.78400803
7.9798312 -2.6282659 -0.78382224
7.9781284 -2.6524236 -0.78437954
7.9815974 -2.5518582 -0.78177857
7.9801254 -2.5759721 -0.78233588
7.9769349 -2.4738514 -0.77917761
7.9881248 -2.5048578 -0.78103542
7.9834394 -2.5263631 -0.78122127
7.9948611 -2.4290247 -0.77954918
7.9819088 -2.4509814 -0.77899188
7.9909201 -2.3518555 -0.777134
7.9834919 -2.3769481 -0.777134
7.9825444 -2.4009538 -0.77769136
7.9947643 -2.303036 -0.77620506
7.9959512 -2.327579 -0.77694821
8.0080252 -2.234374 -0.7756477
8.0040646 -2.2558718 -0.77583349
8.0077066 -2.2795441 -0.77676243
8.0080748 -2.1817503 -0.77434725
8.0111656 -2.2081468 -0.77527618
8.0106668 -2.1105275 -0.772861
8.0112572 -2.1316309 -0.77341831
8.0068207 -2.1559091 -0.77360409
8.0199108 -2.0591631 -0.77248937
8.0172577 -2.085351 -0.772861
8.0291491 -1.989988 -0.77174628
8.0332184 -2.0148242 -0.77267522
8.0333509 -2.0387187 -0.77323252
8.0388803 -1.9418397 -0.77156049
8.0372953 -1.9652268 -0.77193207
8.0374098 -1.8703638 -0.7698884
8.0386324 -1.8913659 -0.77044582
8.0403976 -1.9184589 -0.77118886
8.0347719 -1.8195574 -0.76858795
8.0432463 -1.8451045 -0.7698884
8.0525951 -1.7483898 -0.76877367
8.0434828 -1.7714182 -0.76840216
8.037878 -1.7966785 -0.76840216
8.0583382 -1.7025653 -0.76840216
8.0519066 -1.7232395 -0.76821637
8.0553236 -1.6286277 -0.76673013
8.0579691 -1.6555291 -0.76747322
8.0519495 -1.674808 -0.76728743
8.0626154 -1.581822 -0.76654434
8.0584469 -1.6029247 -0.76654434
8.0641041 -1.5106127 -0.76542962
8.0657225 -1.5342424 -0.76598698
8.0611353 -1.5581671 -0.76598698
8.0611696 -1.4606031 -0.76431495
8.0688105 -1.4852712 -0.76542962
8.0615911 -1.3895807 -0.76320022
8.0635633 -1.4131187 -0.76375753
8.0637589 -1.4349222 -0.76412916
8.0640354 -1.3393308 -0.7626428
8.0639544 -1.3639156 -0.76301444
8.0592365 -1.2692492 -0.76115656
8.0753231 -1.2949028 -0.76301444
8.0677443 -1.3168064 -0.7626428
8.0548124 -1.2196139 -0.76004183
8.0590305 -1.2447234 -0.76078504
8.0673208 -1.1481495 -0.76022762
8.0579672 -1.1712216 -0.75967032
8.0643063 -1.1965864 -0.76059926
8.0657158 -1.1019975 -0.75948453
8.0643826 -1.1261994 -0.75967032
8.0611982 -1.0298033 -0.75818408
8.0582914 -1.0523105 -0.75818408
8.0612421 -1.0755994 -0.75874138
8.058917 -0.98380005 -0.75744092
8.0622425 -1.0056344 -0.75799829
8.0675135 -0.91062015 -0.75744092
8.0685682 -0.93641949 -0.75781244
8.0618 -0.95988446 -0.75744092
8.0724735 -0.86554861 -0.75744092
8.0680456 -0.88787001 -0.75725514
8.0797195 -0.79507101 -0.75744092
8.0812864 -0.81944221 -0.75781244
8.0771332 -0.84039009 -0.75762665
8.0842953 -0.74711114 -0.75744092
8.0760956 -0.77052712 -0.75688356
8.0802307 -0.67993611 -0.75651193
8.0843735 -0.70160425 -0.75706935
8.0823832 -0.7241773 -0.75706935
8.0883141 -0.62946242 -0.75688356
8.0803423 -0.6543873 -0.7563262
8.0813837 -0.56085348 -0.7557689
8.0856428 -0.58526021 -0.7563262
8.0920258 -0.60702217 -0.75706935
8.0805941 -0.51263577 -0.75539726
8.08708 -0.53572559 -0.75614041
8.0925589 -0.44536048 -0.75614041
8.0932722 -0.46807238 -0.7563262
8.0840683 -0.4887782 -0.75558311
8.0990372 -0.39752597 -0.75651193
8.0919304 -0.41983163 -0.75595462
8.1022549 -0.32542017 -0.75651193
8.0893164 -0.34894365 -0.75539726
8.0962677 -0.37189737 -0.75614041
8.099966 -0.2800262 -0.75614041
8.0951729 -0.30249572 -0.7557689
8.1021376 -0.20791681 -0.75614041
8.1074572 -0.2321264 -0.75669783
8.0987711 -0.25592902 -0.75595462
8.101182 -0.16262299 -0.75595462
8.1086922 -0.18401197 -0.75669783
8.1082811 -0.090574145 -0.75651193
8.1139498 -0.11471591 -0.75706935
8.1035957 -0.14003399 -0.75614041
8.1126432 -0.04531002 -0.75688356
8.1104946 -0.067947909 -0.75669783
8.1187038 0.025510529 -0.75744092
8.1147604 0.0028348658 -0.75706935
8.1047812 -0.019803755 -0.75614041
8.11444 0.072231956 -0.75706935
8.1126184 0.049557246 -0.75688356
8.1194983 0.14172801 -0.75762665
8.11588 0.11899269 -0.75725514
8.1102257 0.094843507 -0.75669783
8.1184807 0.19132514 -0.75762665
8.1170225 0.16719675 -0.75744092
8.1265001 0.26106298 -0.75855559
8.1212263 0.23819864 -0.75799829
8.1179152 0.21399407 -0.75762665
8.1268511 0.30794403 -0.75874138
8.1337004 0.28403592 -0.7592988
8.1298895 0.37770677 -0.7592988
8.120903 0.35598668 -0.75836986
8.1238546 0.3333905 -0.75855559
8.1255894 0.42442605 -0.75911289
8.124754 0.40163267 -0.75892717
8.1273651 0.49851435 -0.75967032
8.124917 0.47274929 -0.7592988
8.1242161 0.44994965 -0.75911289
8.130415 0.54429823 -0.76022762
8.1179924 0.52070093 -0.75892717
8.1273422 0.61538178 -0.76041347
8.1291323 0.5912624 -0.76041347
8.1328373 0.56728023 -0.76059926
8.1217928 0.66059548 -0.76022762
8.1175394 0.63886297 -0.75967032
8.1255083 0.73376083 -0.76115656
8.1197138 0.70895737 -0.76041347
8.1257505 0.68519479 -0.76078504
8.1210108 0.78196633 -0.76115656
8.1174793 0.75589335 -0.76059926
8.1201172 0.8505947 -0.76171398
8.1206236 0.82629406 -0.76152813
8.1169052 0.89898533 -0.76189977
8.1134443 0.87567157 -0.76134235
8.1110668 0.9671886 -0.7620855
8.1018677 0.94315422 -0.76097077
8.1122246 0.92283821 -0.76171398
8.1150637 1.0165418 -0.76301444
8.1139174 0.99338979 -0.7626428
8.1058836 1.0873191 -0.76301444
8.116972 1.0642967 -0.76375753
8.0999804 1.0405072 -0.76189977
8.0975151 1.1337085 -0.76282871
8.1065674 1.1119047 -0.76338601
8.0969505 1.2072077 -0.76375753
8.1024675 1.1834676 -0.76394331
8.0978565 1.1597049 -0.76320022
8.0940189 1.2530211 -0.76412916
8.1014233 1.2310131 -0.76450068
8.0923386 1.3019795 -0.76468647
8.0920086 1.2787561 -0.76431495
8.0946503 1.3734692 -0.76598698
8.0984554 1.3508568 -0.76598698
8.09237 1.326627 -0.76505804
8.0882387 1.4451056 -0.76654434
8.0785122 1.4200972 -0.76524377
8.0863724 1.3982123 -0.7656154
8.0836973 1.4923903 -0.76691592
8.0939674 1.4694637 -0.76747322
8.080142 1.5647689 -0.76784486
8.0827923 1.5404124 -0.76765895
8.087327 1.5164249 -0.76765895
8.0785236 1.6142511 -0.76858795
8.0813246 1.5898879 -0.76840216
8.0780687 1.6861275 -0.7698884
8.0732841 1.6601443 -0.76895952
8.0801258 1.6365799 -0.76914531
8.0799055 1.7351315 -0.77100313
8.080822 1.7117413 -0.77063155
8.0589418 1.8028669 -0.77044582
8.0603657 1.7780873 -0.77007419
8.0705233 1.7596605 -0.77063155
8.0574808 1.8542961 -0.77137476
8.0629473 1.8303787 -0.77137476
8.0455379 1.922654 -0.77174628
8.0605669 1.9024678 -0.77267522
8.0386963 1.8736202 -0.77007419
8.0455914 1.9732101 -0.772861
8.0607462 1.9530767 -0.77378982
8.0361404 2.0439105 -0.77360409
8.0414658 2.0228586 -0.77360409
8.047081 2.0004001 -0.77360409
8.0357981 2.0931702 -0.77471876
8.0358276 2.0692298 -0.77416146
8.0328569 2.1433828 -0.7756477
8.0330353 2.1194198 -0.7750904
8.0077019 2.2132108 -0.7750904
8.0146151 2.1880445 -0.7750904
8.0264616 2.1672096 -0.7756477
7.9913821 2.2568178 -0.77471876
7.9957361 2.2339547 -0.77453303
7.9813485 2.3278654 -0.7756477
7.9931536 2.3086212 -0.77620506
7.9639931 2.3726561 -0.77527618
7.9744081 2.351531 -0.7756477
7.0795979 -3.8215392 -0.94082069
7.0660772 -3.8381641 -0.94035614
7.0564013 -3.8600662 -0.94058841
7.0898747 -3.7729282 -0.93919462
7.0891542 -3.7995784 -0.94058841
7.1066747 -3.7026541 -0.93710393
7.0980663 -3.7234082 -0.93733621
7.0858846 -3.7422872 -0.93710393
7.1131086 -3.6556411 -0.93524545
7.0993438 -3.6736646 -0.9347809
7.1353064 -3.6121213 -0.93524545
7.1387157 -3.6404963 -0.93710393
7.1427975 -3.5395019 -0.93222553
7.1471057 -3.5665309 -0.934084
7.1424427 -3.5891511 -0.9347809
7.145216 -3.4895871 -0.92990255
7.1473074 -3.516911 -0.93152869
7.1425347 -3.4129369 -0.92572111
7.1461062 -3.4376523 -0.92734718
7.1507797 -3.4645236 -0.9292056
7.1644592 -3.3713384 -0.92595345
7.1568122 -3.3921831 -0.92618573
7.1707206 -3.2966466 -0.92293352
7.16992 -3.3220835 -0.92409497
7.1714153 -3.3471339 -0.92548883
7.1763458 -3.2266829 -0.92014587
7.187211 -3.2557268 -0.92270118
7.1708627 -3.2724857 -0.921772
7.1784635 -3.1780596 -0.91805518
7.1773758 -3.2000773 -0.91898435
7.1880903 -3.1314392 -0.91689366
7.1902304 -3.1562903 -0.91828746
7.216435 -3.0706298 -0.91712594
7.2041802 -3.0892041 -0.91666132
7.2022767 -3.1137187 -0.91759062
7.216732 -3.0188241 -0.91480297
7.2077432 -3.0402231 -0.91480297
7.2238941 -2.9494874 -0.91247994
7.2266517 -2.9741848 -0.91387379
7.2214646 -2.9971364 -0.91433835
7.2462926 -2.9100528 -0.91317683
7.2344546 -2.9287863 -0.91271222
7.2468691 -2.8385577 -0.91015691
7.2494998 -2.8644269 -0.91155076
7.2332501 -2.8784597 -0.91038924
7.2543159 -2.7919366 -0.90899539
7.248343 -2.8129025 -0.90922773
7.2528372 -2.7174971 -0.90574318
7.2572703 -2.7451892 -0.90736932
7.2532883 -2.7668605 -0.90783393
7.2604451 -2.6742015 -0.904814
7.2566733 -2.6958494 -0.90527856
7.2550015 -2.6019533 -0.90132946
7.2509856 -2.6248202 -0.90179408
7.2538805 -2.6459332 -0.90295553
7.258625 -2.5561655 -0.89993566
7.2570744 -2.5784204 -0.90063256
7.2698135 -2.487596 -0.89854187
7.2628388 -2.5078874 -0.89854187
7.2553658 -2.5294254 -0.89854187
7.2825637 -2.4437807 -0.89830953
7.269207 -2.4647336 -0.89761263
7.2918658 -2.3777158 -0.89691579
7.286665 -2.3999622 -0.89714807
7.2855897 -2.4221809 -0.89784497
7.2978702 -2.3332584 -0.8959865
7.2894363 -2.3530185 -0.89575422
7.3027759 -2.2647772 -0.89412814
7.301311 -2.2894917 -0.89482504
7.3028674 -2.3109956 -0.89575422
7.3118963 -2.221524 -0.89366353
7.2957788 -2.2402935 -0.89250201
7.3024201 -2.149219 -0.89017904
7.3032479 -2.1744173 -0.89110821
7.3047557 -2.1970916 -0.89203739
7.2994065 -2.1027255 -0.88832057
7.3087649 -2.127543 -0.89017904
7.3244195 -2.0436368 -0.88924974
7.3094845 -2.0601108 -0.88808829
7.3078876 -2.0803275 -0.8885529
7.3099341 -1.9915463 -0.88599759
7.3116531 -2.0153377 -0.88692677
7.3148365 -1.9272009 -0.88460374
7.3158641 -1.946601 -0.88530064
7.3177295 -1.970365 -0.88622993
7.3152571 -1.8782387 -0.88321
7.3170099 -1.9032111 -0.88413918
7.3037405 -1.8101989 -0.87995774
7.306365 -1.832521 -0.88088697
7.3108463 -1.8553602 -0.88204843
7.3066306 -1.7649604 -0.87902856
7.3113217 -1.7877165 -0.88019007
7.3134212 -1.7018864 -0.87809932
7.3189092 -1.7220262 -0.87926084
7.3018699 -1.7422445 -0.87786704
7.3233914 -1.658458 -0.87809932
7.330349 -1.6815672 -0.87949318
7.3417459 -1.5940492 -0.87856388
7.3272843 -1.6136894 -0.87740242
7.331871 -1.6388673 -0.87856388
7.3447037 -1.5517887 -0.87786704
7.3386731 -1.570596 -0.8776347
7.3404422 -1.4840927 -0.87577635
7.3435268 -1.5087453 -0.87670553
7.3417625 -1.5270889 -0.87693781
7.3371725 -1.4394958 -0.8743825
7.3411713 -1.4602498 -0.87531167
7.3492146 -1.3766956 -0.8743825
7.3472924 -1.3975843 -0.87461478
7.3489647 -1.420509 -0.87531167
7.3533449 -1.3323523 -0.87391788
7.3456883 -1.3521621 -0.87345332
7.3585978 -1.2684053 -0.87322098
7.3608971 -1.2899783 -0.87391788
7.3496718 -1.3078525 -0.8729887
7.3662086 -1.2234309 -0.87322098
7.3547115 -1.2439562 -0.8722918
7.3644261 -1.1598235 -0.87182719
7.3631196 -1.1806988 -0.87205952
7.3597941 -1.2012558 -0.87205952
7.3672504 -1.1155071 -0.87136257
7.3756871 -1.1391805 -0.87275642
7.365088 -1.048207 -0.86996877
7.3835697 -1.0731983 -0.87252414
7.3705282 -1.0936432 -0.87136257
7.3747635 -1.0075945 -0.87043339
7.3776441 -1.0302956 -0.87113029
7.3832755 -0.94319993 -0.87043339
7.3845525 -0.96432877 -0.87089795
7.3739543 -0.9838956 -0.86996877
7.3765979 -0.90050524 -0.8690396
7.3643584 -0.91858464 -0.86787802
7.3765702 -0.83262998 -0.86811036
7.3877311 -0.85740304 -0.86973649
7.3812089 -0.87884933 -0.86927187
7.3751802 -0.79078329 -0.86741346
7.3828154 -0.81246203 -0.86857498
7.3758698 -0.72580987 -0.86671656
7.3855414 -0.74889368 -0.86811036
7.3796039 -0.76781523 -0.86764574
7.3840027 -0.68239361 -0.86718118
7.3799677 -0.70411062 -0.86694884
7.3893523 -0.62180007 -0.86718118
7.3896775 -0.64131486 -0.86741346
7.3858795 -0.661771 -0.86718118
7.3931131 -0.57535934 -0.86718118
7.3952289 -0.59890336 -0.86764574
7.4016371 -0.51367855 -0.86764574
7.3961182 -0.53535056 -0.86718118
7.3927097 -0.55456311 -0.86694884
7.4105024 -0.4701249 -0.86834264
7.4012322 -0.49029183 -0.86741346
7.3943462 -0.40693548 -0.86601967
7.3911977 -0.42746809 -0.86578739
7.3880706 -0.44669682 -0.86555505
7.3946466 -0.36295226 -0.86578739
7.3955884 -0.3837035 -0.86601967
7.4035392 -0.29735684 -0.86648428
7.4105625 -0.31966469 -0.86741346
7.3957505 -0.3397195 -0.86578739
7.4130249 -0.25627777 -0.86741346
7.4003701 -0.27653277 -0.86601967
7.4169989 -0.1903348 -0.86764574
7.4025021 -0.21194266 -0.86601967
7.411768 -0.23421907 -0.86718118
7.3881555 -0.14830971 -0.86416125
7.4036293 -0.16801184 -0.86601967
7.4090457 -0.082763284 -0.86648428
7.4087677 -0.10474596 -0.86648428
7.4064155 -0.1279864 -0.86625195
7.4054193 -0.041360095 -0.86601967
7.4032888 -0.062023096 -0.86578739
7.4054985 0.023269502 -0.86601967
7.4035482 0.002586406 -0.86578739
7.4114728 -0.018109681 -0.86671656
7.401269 0.065883555 -0.86555505
7.4113564 0.045273472 -0.86671656
7.402421 0.12921123 -0.86578739
7.420629 0.10879911 -0.86787802
7.4109879 0.086666413 -0.86671656
7.4094377 0.17461538 -0.86671656
7.4019785 0.15246809 -0.86578739
7.4017172 0.23777939 -0.86601967
7.3983803 0.2169973 -0.86555505
7.4049487 0.19519977 -0.86625195
7.3990388 0.25838089 -0.86578739
7.4043841 0.32457751 -0.86671656
7.4092312 0.30406347 -0.86718118
7.4033885 0.38670313 -0.86694884
7.4004717 0.36582908 -0.86648428
7.4055223 0.45423809 -0.86764574
7.4009633 0.430626 -0.86694884
7.4120541 0.41050747 -0.86811036
7.3989062 0.4953267 -0.86718118
7.4042249 0.47491872 -0.86764574
7.3943019 0.55987787 -0.86718118
7.3998928 0.53822207 -0.86764574
7.4034386 0.51640338 -0.86787802
7.3969994 0.60164356 -0.86787802
7.3965688 0.58212149 -0.86764574
7.3893723 0.66728532 -0.86764574
7.4051719 0.64656848 -0.86927187
7.3951817 0.62359041 -0.86787802
7.3912148 0.71169478 -0.86834264
7.393414 0.68846899 -0.86834264
7.3948712 0.77462411 -0.86950421
7.3951612 0.75247639 -0.86927187
7.39328 0.73143244 -0.86880732
7.3881693 0.81827444 -0.86927187
7.3825264 0.7967847 -0.86834264
7.3790832 0.87990463 -0.8690396
7.3992696 0.86136341 -0.87113029
7.3896575 0.84063977 -0.86973649
7.3776741 0.92417192 -0.86950421
7.3841696 0.90404648 -0.86996877
7.3791718 0.98983842 -0.87066567
7.389955 0.96897036 -0.87159485
7.3767047 0.94759673 -0.86973649
7.377284 1.032871 -0.87113029
7.3762026 1.0117271 -0.87066567
7.3729901 1.0769182 -0.87136257
7.3681035 1.055196 -0.87043339
7.3733263 1.141452 -0.87252414
7.3686285 1.1196648 -0.87159485
7.3664231 1.1851866 -0.87252414
7.3755898 1.1655425 -0.87322098
7.3540592 1.2478085 -0.8722918
7.361434 1.2279185 -0.87275642
7.3609133 1.2067153 -0.8722918
7.354351 1.2927991 -0.87322098
7.3618479 1.272935 -0.8736856
7.3567004 1.3581741 -0.87484711
7.3528795 1.3349187 -0.87391788
7.3582191 1.4249642 -0.87647325
7.3585124 1.4023798 -0.87600863
7.3489738 1.377979 -0.8743825
7.3500609 1.4460219 -0.87600863
7.344584 1.5330279 -0.87740242
7.3452086 1.510427 -0.87693781
7.3399234 1.4866563 -0.87577635
7.3434014 1.5769697 -0.8783316
7.3419456 1.5552268 -0.8776347
7.3451548 1.6431856 -0.88019007
7.3402987 1.6192431 -0.87902856
7.3403516 1.6004572 -0.87856388
7.3291721 1.6866879 -0.87949318
7.336082 1.665372 -0.87972546
7.3167181 1.7484868 -0.87972546
7.3273721 1.729418 -0.88042235
7.3302383 1.7084962 -0.88019007
7.3255057 1.7966065 -0.88204843
7.322772 1.7742695 -0.88111925
7.3079476 1.8587022 -0.88181615
7.3012314 1.8366503 -0.88042235
7.3121138 1.8176966 -0.88111925
7.3067327 1.9032627 -0.88297766
7.3081732 1.8818583 -0.88251311
7.3029881 1.948634 -0.88390684
7.302639 1.9267138 -0.88321
7.2910976 2.015152 -0.88460374
7.2993083 1.9927608 -0.88483608
7.2933383 1.9692605 -0.88344228
7.2797284 2.0558424 -0.88460374
7.2816153 2.0344343 -0.88413918
7.2771373 2.122473 -0.88646221
7.2807603 2.1028643 -0.88622993
7.2755075 2.0779769 -0.88483608
7.2590814 2.1626468 -0.88576525
7.2784305 2.1462977 -0.88739139
7.226253 2.2230852 -0.88413918
7.236619 2.2027898 -0.88460374
7.2465444 2.1837237 -0.88506836
7.217515 2.2646 -0.88460374
7.2219133 2.2438478 -0.88437146
7.2065225 2.3318112 -0.88576525
7.2111135 2.3110726 -0.88553298
7.2179394 2.2896645 -0.88553298
6.3645449 -3.7505 -1.0382315
6.3778958 -3.7824023 -1.0421283
6.3833113 -3.6868923 -1.0360047
6.3672075 -3.7028279 -1.0351696
6.3636799 -3.7245967 -1.036283
6.3930306 -3.6420853 -1.0340562
6.3856325 -3.6630089 -1.0346129
6.403194 -3.5756912 -1.0307161
6.3960094 -3.5966158 -1.0312728
6.396914 -3.6192 -1.0329429
6.4121552 -3.5309439 -1.0287676
6.4051147 -3.5518746 -1.0293243
6.4188542 -3.4648724 -1.0251491
6.4167228 -3.4854465 -1.0262625
6.4046149 -3.5035193 -1.0259842
6.4235668 -3.4183476 -1.022644
6.4238691 -3.4430051 -1.024314
6.4496393 -3.3603315 -1.0220873
6.4402304 -3.3783295 -1.0220873
6.4272685 -3.3944507 -1.0215306
6.4630218 -3.3215418 -1.0212523
6.4589982 -3.3423078 -1.0220873
6.4778895 -3.2793159 -1.0204172
6.4663677 -3.297622 -1.0201389
6.4915013 -3.2167623 -1.0181905
6.4771762 -3.2322245 -1.0173554
6.4787436 -3.2556355 -1.0190256
6.4921241 -3.1706295 -1.0154071
