# .PCD v0.7 - Point Cloud Data file format
VERSION 0.7
FIELDS x y z
SIZE 4 4 4
TYPE F F F
COUNT 1 1 1
WIDTH 1507
HEIGHT 1
VIEWPOINT 0 0 0 1 0 0 0
POINTS 1507
DATA ascii
3.2095468 -3.7235477 -1.4096096
3.2412732 -3.6959639 -1.4096096
3.2315862 -3.7044365 -1.4096096
3.2740431 -3.6669664 -1.4096096
3.2618723 -3.6752267 -1.4090583
3.2522254 -3.6863303 -1.4096096
3.288012 -3.6389143 -1.4063019
3.2817013 -3.654948 -1.408507
3.3112051 -3.6021702 -1.4029942
3.2826462 -3.6126442 -1.3996866
3.3174963 -3.5675528 -1.3969302
3.3153522 -3.5852721 -1.4002379
3.3465633 -3.5376544 -1.396379
3.3413208 -3.5531707 -1.398584
3.3688266 -3.5191221 -1.3969302
3.3530693 -3.5235312 -1.3947252
3.3752525 -3.5049565 -1.3952764
1.0982161 -5.3643517 -1.7086096
1.0813586 -5.3677754 -1.7086096
1.1283076 -5.3542013 -1.7074182
1.1124161 -5.3575258 -1.7074182
1.1684284 -5.3143172 -1.6978861
1.1541517 -5.3291569 -1.7014607
1.140463 -5.3379602 -1.7032479
1.1960722 -5.2944627 -1.6937159
1.1836797 -5.3128963 -1.6984819
1.2374231 -5.2633796 -1.6871626
1.2235262 -5.2744675 -1.6895458
1.2117757 -5.2908907 -1.6937159
1.2636884 -5.2394614 -1.681801
1.2503475 -5.2524743 -1.6847796
1.3033683 -5.2120218 -1.6764392
1.2938397 -5.2281637 -1.6806093
1.277409 -5.2322025 -1.6806093
1.3328098 -5.194716 -1.6734604
1.3188273 -5.2081313 -1.6764392
1.3727742 -5.1665215 -1.6680987
1.3593117 -5.1740279 -1.6692901
1.3467779 -5.185195 -1.6716732
1.400004 -5.1493173 -1.6651199
1.3847193 -5.1534486 -1.6651199
1.4421616 -5.1237869 -1.6609497
1.4238821 -5.1170077 -1.6573751
1.4152763 -5.1451411 -1.6651199
1.4649529 -5.0954695 -1.6543964
1.4534827 -5.1126485 -1.6585667
1.5042679 -5.0620961 -1.6478431
1.4905097 -5.0741248 -1.6502262
1.4781114 -5.0876913 -1.6532049
1.5264219 -5.0335183 -1.6412899
1.5147719 -5.0489974 -1.6448644
1.5542582 -5.0209951 -1.6400983
1.5424687 -5.0326185 -1.6424814
1.5936617 -4.9905939 -1.6347368
1.5788469 -4.9953003 -1.6347368
1.5711654 -5.0197325 -1.6412899
1.6215088 -4.9816155 -1.6347368
1.608178 -4.9879413 -1.6353325
1.6575432 -4.9395437 -1.6258005
1.6450255 -4.9537864 -1.6287793
1.6335714 -4.9656153 -1.6311622
1.6961396 -4.9203653 -1.6240132
1.6869569 -4.9356294 -1.6275877
1.7191992 -4.8901005 -1.61746
1.7044553 -4.8972802 -1.6180557
1.7568632 -4.8665476 -1.6144812
1.7421868 -4.8657374 -1.6126939
1.7290183 -4.8744841 -1.6138854
1.7673743 -4.8505507 -1.6109068
1.8022734 -4.8152733 -1.6043534
1.7888192 -4.8202877 -1.6043534
1.8380623 -4.7833228 -1.5989916
1.8308159 -4.8044934 -1.6043534
1.8167175 -4.8078022 -1.6037577
1.8761019 -4.7603245 -1.5966086
1.8636326 -4.7652197 -1.5966086
1.8529366 -4.7796288 -1.5995876
1.9014741 -4.7420192 -1.5942258
1.8859856 -4.7440915 -1.5930341
1.9215469 -4.7133098 -1.5882683
1.9046922 -4.7119102 -1.5858853
1.953771 -4.6752229 -1.5811192
1.9450955 -4.6912422 -1.5846937
1.9319872 -4.6966558 -1.5846937
1.9799867 -4.6600323 -1.5799278
1.9698581 -4.6746836 -1.5829065
2.0114348 -4.6215692 -1.5727787
2.0014961 -4.636282 -1.5757575
1.9952466 -4.6597505 -1.581715
2.037986 -4.6120095 -1.5733744
2.0718722 -4.5780325 -1.5680128
2.042315 -4.5871153 -1.5668212
2.0942206 -4.5594497 -1.5656297
2.0830646 -4.5687547 -1.5668212
2.126621 -4.5254498 -1.560268
2.1148136 -4.5372996 -1.5620553
2.105334 -4.5480185 -1.5638425
2.1468606 -4.4989653 -1.5555019
2.1391931 -4.5152955 -1.5590765
2.1802921 -4.4722419 -1.5525233
2.166131 -4.4748759 -1.5513318
2.1577616 -4.4895115 -1.5543106
2.2017114 -4.4489584 -1.5489488
2.1943314 -4.4653697 -1.5525233
2.2361434 -4.4210567 -1.54597
2.2248118 -4.4331789 -1.5477573
2.2165296 -4.4437275 -1.5495445
2.2554684 -4.3962135 -1.5417998
2.2458808 -4.4096913 -1.5441827
2.286531 -4.3607459 -1.5364381
2.2788715 -4.3776717 -1.5400125
2.2667496 -4.3861098 -1.5406083
2.30637 -4.3394775 -1.5334593
2.3421714 -4.3137431 -1.531672
2.3320804 -4.3257151 -1.5334593
2.3219383 -4.3376656 -1.5352465
2.3497958 -4.3008947 -1.529289
2.3887079 -4.2531481 -1.52214
2.3833334 -4.2714725 -1.5263102
2.3715749 -4.2801948 -1.5269061
2.3977571 -4.2414746 -1.5203527
2.4385602 -4.1982884 -1.514991
2.432771 -4.217082 -1.5191613
2.4238336 -4.228828 -1.5209486
2.4665732 -4.1907554 -1.517374
2.4519699 -4.1926827 -1.5155869
2.480165 -4.1605148 -1.5114166
2.4685369 -4.1674247 -1.5114166
2.5101547 -4.1268559 -1.5072464
2.5015831 -4.1387506 -1.5090336
2.5342889 -4.0873885 -1.500693
2.5328798 -4.1107044 -1.5066504
2.5226655 -4.1214581 -1.5078421
2.5561616 -4.0669823 -1.4989058
2.5484269 -4.0830908 -1.5018846
2.5922024 -4.0486412 -1.5000973
2.5808859 -4.0558648 -1.5000973
2.5675087 -4.0598278 -1.4989058
2.6068304 -4.0187721 -1.4947355
2.5952263 -4.0285468 -1.4953314
2.6400511 -3.9947388 -1.4941398
2.6128254 -4.0034828 -1.4917568
2.6587682 -3.9731197 -1.4917568
2.6444902 -3.97576 -1.4899696
2.682193 -3.9319475 -1.4852035
2.6737282 -3.9446292 -1.4869908
2.6630793 -3.954129 -1.4875866
2.698688 -3.9090505 -1.4822248
2.6895249 -3.9176757 -1.4828205
2.7272058 -3.877543 -1.479246
2.721837 -3.8929672 -1.4822248
2.7080951 -3.8978901 -1.4810333
2.7483859 -3.8602161 -1.4786503
2.7393739 -3.8689561 -1.479246
2.7781529 -3.8294179 -1.4762673
2.7589624 -3.8268032 -1.4720972
2.7524848 -3.8432126 -1.4750758
2.7915885 -3.8030686 -1.4720972
2.7764556 -3.8046803 -1.469714
2.8120954 -3.7617421 -1.4655437
2.7991254 -3.7690253 -1.4649481
2.8023877 -3.7927444 -1.4715012
2.8314109 -3.7424386 -1.4643524
2.8243918 -3.7549078 -1.4661397
2.8546402 -3.705488 -1.4595863
2.8436337 -3.7139413 -1.4595863
2.8372259 -3.7284398 -1.4619694
2.8742309 -3.685472 -1.4583949
2.8691313 -3.7015285 -1.4613736
2.896148 -3.6487935 -1.4536288
2.890039 -3.6633658 -1.4560118
2.8833327 -3.6759288 -1.4577991
2.9218974 -3.6380064 -1.4560118
2.9051349 -3.6391993 -1.4530331
2.9414482 -3.5975895 -1.4500543
2.938617 -3.6146779 -1.4536288
2.9249105 -3.6184156 -1.4518416
2.9578452 -3.5766914 -1.4482672
2.9490585 -3.586412 -1.4488629
2.9803438 -3.5380185 -1.4435011
2.9765666 -3.5561483 -1.4470756
2.9623392 -3.5605612 -1.4452883
2.9877439 -3.5267682 -1.4423095
3.0206659 -3.4834645 -1.4387351
3.0115631 -3.4938574 -1.4393308
3.0036683 -3.5056777 -1.4405224
3.0362971 -3.4622335 -1.4369479
3.0272229 -3.4701703 -1.4369479
3.0669949 -3.4350698 -1.4369479
3.0529871 -3.4398711 -1.4351606
3.0478199 -3.4546409 -1.4375436
3.0783648 -3.4068935 -1.4327776
3.0740242 -3.4236505 -1.4357563
3.0996356 -3.3720093 -1.4292032
3.1006157 -3.3944173 -1.4345649
3.0788789 -3.3883927 -1.4286073
3.1125047 -3.34711 -1.4262244
3.1083305 -3.3613956 -1.4286073
3.1285343 -3.3268929 -1.425033
3.1567025 -3.2975342 -1.424437
3.1495373 -3.3096523 -1.4256287
3.1631188 -3.2675073 -1.4190754
3.1664727 -3.2881536 -1.424437
3.1915126 -3.2397797 -1.4190754
3.181886 -3.2492349 -1.4190754
3.2129047 -3.2050633 -1.4160966
3.2039421 -3.2140231 -1.4160966
3.1949542 -3.2229576 -1.4160966
3.2231545 -3.1784618 -1.4125221
3.2156219 -3.1887949 -1.4131179
3.2458334 -3.1443334 -1.4101391
3.2378571 -3.1552823 -1.4107348
3.2339346 -3.1702218 -1.4131179
3.2564509 -3.1195529 -1.4071604
3.2835498 -3.0910163 -1.4071604
3.2735183 -3.098861 -1.4065646
3.2692964 -3.114397 -1.4089476
3.2943099 -3.0655499 -1.4041816
3.3186474 -3.0335293 -1.4029901
3.3110375 -3.0446548 -1.4035859
3.3070614 -3.0602288 -1.4059689
3.3270397 -3.0072663 -1.3994157
3.3214543 -3.0191135 -1.4006071
3.3431637 -2.969243 -1.3952453
3.3297448 -2.9928584 -1.3970326
3.3573403 -2.9474199 -1.3940539
3.3519588 -2.9593108 -1.3952453
3.3665836 -2.9368577 -1.3940539
0.56577796 -5.2941189 -1.7990575
0.60537928 -5.2401481 -1.7824113
0.5887022 -5.2401414 -1.7817712
0.58108032 -5.3058038 -1.803539
0.63600618 -5.2403364 -1.7836918
0.62047803 -5.2345657 -1.7811308
0.6773079 -5.200767 -1.7721676
0.64760184 -5.2140961 -1.7753688
0.70520669 -5.1817598 -1.7670459
0.74759483 -5.1624126 -1.7625641
0.73254019 -5.1664848 -1.7632043
0.7194137 -5.1778932 -1.7664055
0.77849799 -5.15976 -1.7632043
0.80438858 -5.1308556 -1.7548814
0.79092187 -5.1387 -1.7568021
0.84696382 -5.1105561 -1.7503997
0.83058012 -5.1055655 -1.7478386
0.8895722 -5.0917711 -1.7465583
0.87470776 -5.0905008 -1.7452778
0.85776651 -5.0876184 -1.7433571
0.91888446 -5.0865631 -1.7465583
0.90179956 -5.078074 -1.7427168
0.95688158 -5.0448422 -1.735034
0.92365414 -5.0375476 -1.7305523
0.97813624 -5.0040884 -1.7228696
0.96825922 -5.023376 -1.7286316
1.0233982 -4.9988961 -1.7241501
1.0069407 -4.9983721 -1.7228696
0.99445504 -5.0085979 -1.7254306
1.0478755 -4.9725242 -1.7171075
1.035043 -4.9848876 -1.7203087
1.0871596 -4.9446855 -1.7107052
1.0732241 -4.9554834 -1.7132661
1.0613619 -4.9677258 -1.7164674
1.1160383 -4.9401894 -1.7113453
1.0993158 -4.9342322 -1.7081443
1.1534697 -4.9062843 -1.7030224
1.1406198 -4.917068 -1.7055832
1.1273069 -4.9220815 -1.7062236
1.1763777 -4.8774562 -1.6953396
1.1671659 -4.9030442 -1.7030224
1.2158173 -4.8619156 -1.6934189
1.2048444 -4.8685503 -1.6946993
1.1926895 -4.8851962 -1.6991808
1.246907 -4.8599038 -1.6953396
1.2293077 -4.8546133 -1.6921383
1.267656 -4.8251534 -1.6857361
1.2594165 -4.8488469 -1.6927786
1.3068858 -4.8068223 -1.6831751
1.295076 -4.8198276 -1.6863762
1.3434592 -4.7731123 -1.6754923
1.334371 -4.795331 -1.6818947
1.3251625 -4.8175383 -1.6882969
1.3653846 -4.749146 -1.6697301
1.4070634 -4.7349877 -1.6690899
1.3905789 -4.7339315 -1.6671692
1.3812846 -4.7544117 -1.6729313
1.4150988 -4.7167697 -1.6639681
1.4522841 -4.6915703 -1.6594864
1.4408425 -4.7010427 -1.6614071
1.4905281 -4.6676283 -1.6556451
1.4664502 -4.6851768 -1.6588461
1.5130544 -4.6484208 -1.6518036
1.5023942 -4.6598411 -1.6543646
1.552166 -4.6255155 -1.6486024
1.5394182 -4.6357632 -1.6505231
1.5288346 -4.6472435 -1.653084
1.5857341 -4.6000881 -1.6441208
1.5693958 -4.5916739 -1.6396391
1.5614294 -4.6103954 -1.644761
1.6062636 -4.5688663 -1.6364381
1.5943933 -4.5810475 -1.638999
1.6444821 -4.5552497 -1.6364381
1.6287194 -4.5488358 -1.6325966
1.6177489 -4.560791 -1.6351576
1.6637729 -4.5220017 -1.6281151
1.6528022 -4.536108 -1.6313162
1.6770532 -4.5191145 -1.6287552
1.719483 -4.4747353 -1.619792
1.7130524 -4.4954543 -1.625554
1.6978133 -4.4931312 -1.6229931
1.7535195 -4.4492903 -1.6159506
1.743245 -4.4573941 -1.6172309
1.7341217 -4.4731469 -1.6210724
1.7756594 -4.4282541 -1.6121092
1.7975581 -4.4091806 -1.6089079
1.7880187 -4.4232783 -1.6121092
1.8359667 -4.3933263 -1.6089079
1.8244175 -4.400187 -1.6095482
1.8501499 -4.3544526 -1.5986643
1.8416362 -4.3703995 -1.6025056
1.8858107 -4.3329291 -1.5967436
1.8774512 -4.3489432 -1.6005849
1.8667773 -4.3597198 -1.6025056
1.9099803 -4.32233 -1.5967436
1.8979024 -4.3276463 -1.5967436
1.9436902 -4.2948003 -1.5929022
1.9278347 -4.2936344 -1.5903412
1.9197308 -4.3117862 -1.5948229
1.9478159 -4.2721152 -1.5864998
1.998508 -4.2528253 -1.5877801
1.9739809 -4.2642646 -1.5877801
2.0147338 -4.2220802 -1.5807376
2.0094254 -4.2413888 -1.5858597
2.0417304 -4.1880226 -1.5743353
2.0325041 -4.1988244 -1.576256
2.0240538 -4.2113147 -1.5788169
2.0573022 -4.1571531 -1.5672928
2.0506992 -4.1730847 -1.5711342
2.0906863 -4.1659193 -1.5749755
2.0779636 -4.1659288 -1.5730548
2.1224949 -4.1370301 -1.5711342
2.1076314 -4.1382446 -1.5692135
2.1539559 -4.1079054 -1.5672928
2.1400077 -4.1109171 -1.5660123
2.1295414 -4.120615 -1.5672928
2.166194 -4.0757337 -1.5596099
2.1611657 -4.0955496 -1.5647317
2.197866 -4.047966 -1.5564089
2.187644 -4.0578041 -1.5576892
2.1782773 -4.0692887 -1.5596099
2.2224746 -4.0409951 -1.5583295
2.2462935 -3.9995763 -1.5500064
2.235116 -4.0058336 -1.5500064
2.2333224 -4.0306783 -1.557049
2.2648487 -3.9803808 -1.5474454
2.255589 -3.9899888 -1.548726
2.2954299 -3.9518716 -1.5442444
2.283694 -3.9586651 -1.5442444
2.2829952 -3.9831097 -1.5512869
2.3152692 -3.933687 -1.5423236
2.29758 -3.928688 -1.537842
2.337805 -3.8938389 -1.5346408
2.3284717 -3.9060466 -1.5365615
2.32528 -3.925576 -1.5416834
2.3582242 -3.8770726 -1.5333604
2.3483682 -3.8852639 -1.5340006
2.396287 -3.8648143 -1.5365615
2.3785272 -3.8601995 -1.5320799
2.4138007 -3.8404791 -1.5327201
2.4027276 -3.8496511 -1.5333604
2.435673 -3.8041654 -1.5263177
2.42504 -3.8109527 -1.5263177
2.4194527 -3.8257167 -1.529519
2.4582043 -3.7896452 -1.5263177
2.4493649 -3.8021276 -1.5282384
2.4832108 -3.7574189 -1.5218362
2.474406 -3.7654908 -1.5224763
2.4635997 -3.7748325 -1.5231167
2.4932194 -3.7257328 -1.5147936
2.4901507 -3.7437241 -1.5192752
2.5230803 -3.6986971 -1.5128729
2.502146 -3.7151756 -1.5135131
2.5447748 -3.6861074 -1.5135131
2.5211747 -3.6724496 -1.50519
2.5626743 -3.6436121 -1.50519
2.5590038 -3.6600716 -1.5090314
2.5438082 -3.6614239 -1.5064706
2.5836172 -3.628792 -1.50519
2.5653493 -3.6231725 -1.5000682
2.6080267 -3.5949154 -1.5007085
2.6017809 -3.6087856 -1.5032693
2.590431 -3.6169415 -1.5032693
2.6247001 -3.5757113 -1.4987876
2.6169386 -3.5860882 -1.5000682
2.6435001 -3.5594757 -1.4981475
2.6381726 -3.5704961 -1.5000682
2.6613598 -3.5176718 -1.4904647
2.6560819 -3.531147 -1.4930255
2.6850176 -3.4853079 -1.4866232
2.6827281 -3.5037899 -1.4911048
2.6780572 -3.5192735 -1.4943061
2.6986613 -3.4603488 -1.4827819
2.7081158 -3.493799 -1.4936659
2.7210875 -3.4282389 -1.4789405
2.7167718 -3.4437351 -1.4821416
2.7094831 -3.4542902 -1.4834222
2.7396009 -3.4110322 -1.4783002
2.7401071 -3.4324725 -1.4840623
2.7656651 -3.3825946 -1.4763794
2.7633801 -3.3991258 -1.4802209
2.7610235 -3.4156704 -1.4840623
2.7881365 -3.3714757 -1.4783002
2.7959325 -3.340342 -1.4718978
2.7908568 -3.3544493 -1.4744589
2.8200605 -3.3100467 -1.469337
2.8144805 -3.3222463 -1.4712577
2.8475971 -3.2838798 -1.4686967
2.8440263 -3.2994902 -1.4718978
2.8268275 -3.2992811 -1.4680566
2.8558986 -3.2565281 -1.4635748
2.8585737 -3.2768443 -1.469337
2.8797247 -3.2253251 -1.4610139
2.8764307 -3.240941 -1.4642152
2.8705628 -3.2537236 -1.4661359
2.8950024 -3.2039621 -1.4590932
2.9001131 -3.2299597 -1.466776
2.9146028 -3.1707172 -1.4552517
2.9122949 -3.188252 -1.4590932
2.9064867 -3.1986701 -1.4603736
2.9379783 -3.1594286 -1.4578128
2.953171 -3.121799 -1.4520507
2.9400015 -3.1264064 -1.45013
2.9480834 -3.1525955 -1.4584529
2.9742646 -3.1069574 -1.4533311
2.9637265 -3.1143954 -1.4526908
2.9901512 -3.0705478 -1.4482092
2.9690125 -3.0831056 -1.4462885
3.0037973 -3.0492253 -1.4462885
2.9960625 -3.0594783 -1.4469287
3.0276096 -3.0202205 -1.4450082
3.0106943 -3.0370827 -1.4450082
3.0328121 -2.9907589 -1.4392459
3.0325212 -3.0072217 -1.4430875
3.0579522 -2.9623272 -1.4386058
3.05322 -2.975354 -1.4405264
3.0703444 -2.9412701 -1.4366851
3.1027927 -2.9208581 -1.4398862
3.0877442 -2.9229987 -1.4366851
3.1126289 -2.8964851 -1.4366851
3.1128287 -2.9129336 -1.4405264
3.127099 -2.8584375 -1.4315631
3.1227882 -2.8715508 -1.4334838
3.1207051 -2.8877819 -1.4366851
3.1387973 -2.8371165 -1.4296424
3.133667 -2.8484199 -1.430923
3.1489432 -2.8144913 -1.4270815
3.1382527 -2.8207405 -1.4258009
3.1710224 -2.7838507 -1.4258009
3.1674974 -2.7964571 -1.4277217
3.1966305 -2.7573106 -1.4264413
3.1865208 -2.7660968 -1.4258009
3.1811807 -2.7751207 -1.4264413
3.2038066 -2.731478 -1.4225999
3.1971264 -2.7422049 -1.4232401
3.2059739 -2.7025506 -1.4168377
3.2147882 -2.7244098 -1.4238805
3.2372003 -2.6799486 -1.4200389
3.2248666 -2.685904 -1.4181182
3.2516434 -2.644424 -1.4161975
3.2290432 -2.6570888 -1.4129963
3.2209659 -2.6250839 -1.4040331
3.2018685 -2.6394169 -1.4021124
3.226156 -2.5976062 -1.3995514
3.2247796 -2.6113751 -1.4021124
3.2395811 -2.5778024 -1.3989112
3.2319181 -2.5874031 -1.3989112
3.2704642 -2.5570056 -1.4027526
3.2524383 -2.5584974 -1.398271
3.2791278 -2.5179825 -1.3969905
3.2731421 -2.5288591 -1.3976307
3.2724955 -2.542069 -1.4001917
3.2931397 -2.4996293 -1.3969905
3.2846403 -2.5076659 -1.3963503
3.3126507 -2.4673755 -1.39571
3.3007667 -2.4737842 -1.3937893
3.3009763 -2.4892712 -1.3969905
3.3100204 -2.4359014 -1.3886675
3.313009 -2.4541831 -1.3931491
3.3280792 -2.4047043 -1.3873869
3.313751 -2.4244111 -1.3873869
3.3403323 -2.3843954 -1.3867468
0.69978034 -4.8322363 -1.7771366
0.68570334 -4.8361526 -1.7778207
0.67348903 -4.8473558 -1.7812408
0.72563851 -4.8094153 -1.7702962
0.71244788 -4.8246856 -1.7750845
0.76318675 -4.7807636 -1.7620878
0.75216287 -4.7977295 -1.7675601
0.73904777 -4.8016686 -1.768244
0.78969967 -4.7650261 -1.7579836
0.77797258 -4.7821875 -1.7634557
0.82931095 -4.7468452 -1.7538793
0.81605166 -4.7491426 -1.7538793
0.80019075 -4.7461228 -1.7518271
0.85663748 -4.7419901 -1.7538793
0.84059137 -4.733408 -1.7497751
0.89483362 -4.7177153 -1.7477229
0.88221067 -4.7277393 -1.750459
0.86735344 -4.7304873 -1.750459
0.91900516 -4.7015772 -1.7436186
0.90455872 -4.6928945 -1.7395145
0.95893228 -4.6840053 -1.7401985
0.94198567 -4.67594 -1.7360942
0.93148673 -4.6914563 -1.7408825
0.98085678 -4.6544971 -1.731306
0.97239119 -4.6831493 -1.7408825
1.0190154 -4.6347475 -1.7272017
1.0052453 -4.6415997 -1.7285699
0.99306571 -4.6480641 -1.7299378
1.0419654 -4.6123023 -1.7210453
1.0319544 -4.6318836 -1.7272017
1.0787346 -4.5883985 -1.7155731
1.0693623 -4.6098866 -1.7224134
1.0543867 -4.6036949 -1.7189932
1.0902376 -4.5798831 -1.7135209
1.1398433 -4.558104 -1.7101007
1.1309599 -4.5699973 -1.7135209
1.1165977 -4.5735278 -1.7135209
1.1676657 -4.5510559 -1.7101007
1.1515174 -4.5474143 -1.7073644
1.1988221 -4.5118423 -1.6991562
1.1876512 -4.5206261 -1.7012082
1.1769125 -4.5312004 -1.7039443
1.2238024 -4.5012355 -1.697788
1.2114168 -4.5084767 -1.6991562
1.2587277 -4.4720736 -1.6909475
1.2499878 -4.4920835 -1.697104
1.2311714 -4.4758396 -1.6895795
1.2769339 -4.4414926 -1.682055
1.2724872 -4.4759936 -1.6936837
1.3223064 -4.4497671 -1.6895795
1.3046124 -4.441277 -1.6847912
1.2977215 -4.4667854 -1.6929997
1.3400477 -4.418932 -1.680687
1.3274704 -4.4246893 -1.6813711
1.3665881 -4.4147315 -1.682055
1.3526021 -4.4131398 -1.6800029
1.4006842 -4.3862796 -1.6758987
1.385964 -4.3850398 -1.6738465
1.3782053 -4.4032421 -1.6793189
1.4205056 -4.3640919 -1.6704264
1.4094675 -4.3716183 -1.6717944
1.4546736 -4.3349843 -1.66427
1.4318599 -4.3524666 -1.6676903
1.4901843 -4.3229055 -1.66427
1.477646 -4.323236 -1.662902
1.4655672 -4.3273458 -1.662902
1.50846 -4.2906733 -1.6553775
1.4968263 -4.3007154 -1.6574296
1.5398844 -4.2655115 -1.6505892
1.5331476 -4.2819138 -1.6553775
1.5672106 -4.259553 -1.6519574
1.5570383 -4.2732844 -1.6553775
1.587682 -4.2419329 -1.648537
1.574522 -4.242826 -1.6471691
1.6232909 -4.2244077 -1.6471691
1.6081414 -4.2201428 -1.6437488
1.5970147 -4.2263756 -1.6444328
1.6504003 -4.1876407 -1.6382766
1.6414845 -4.1971974 -1.6403285
1.6324209 -4.2108111 -1.6437488
1.6696247 -4.1638179 -1.6328042
1.6593461 -4.1739926 -1.6348562
1.6900313 -4.1454315 -1.629384
1.685472 -4.1695938 -1.6369084
1.7174464 -4.1097164 -1.6211755
1.7138815 -4.1335931 -1.6286999
1.747683 -4.1132903 -1.6266477
1.7347411 -4.1167259 -1.6259637
1.7745117 -4.0772038 -1.6184393
1.7525048 -4.092845 -1.6204915
1.7858897 -4.0722322 -1.6184393
1.8233124 -4.0288119 -1.6095468
1.8167397 -4.046206 -1.6143351
1.8063122 -4.057044 -1.6163872
1.8450005 -4.0168581 -1.6088626
1.8361156 -4.0271249 -1.6109148
1.8689944 -4.0098982 -1.6102308
1.8996438 -3.9808974 -1.6054425
1.8933473 -3.9963775 -1.6095468
1.9246914 -3.9479506 -1.5986022
1.915297 -3.9566932 -1.5999703
1.9472514 -3.9347756 -1.5979182
1.9362561 -3.9401977 -1.5979182
1.9764248 -3.9075701 -1.5938139
1.9632958 -3.9120798 -1.5931298
1.995466 -3.8894336 -1.5910778
1.9890345 -3.9053848 -1.5951818
2.0230253 -3.858202 -1.5856054
2.0167754 -3.8741899 -1.5897096
2.0044091 -3.8784871 -1.5890256
2.042778 -3.8435242 -1.5842373
2.0679402 -3.8086724 -1.5773968
2.0584147 -3.8181 -1.5787649
2.048851 -3.8275046 -1.5801331
2.0858002 -3.7924881 -1.5753448
2.0761027 -3.799947 -1.5760288
2.1185541 -3.7721334 -1.5746607
2.111675 -3.7845993 -1.5773968
2.1405187 -3.7618756 -1.5753448
2.1272302 -3.7629304 -1.5732927
2.1635346 -3.724797 -1.5678203
2.1552904 -3.736084 -1.5698724
2.1476531 -3.74698 -1.5719246
2.1792316 -3.7025564 -1.5637161
2.1764741 -3.7216063 -1.5691885
2.2037206 -3.6705084 -1.5582438
2.199877 -3.6903274 -1.5637161
2.1866896 -3.6916056 -1.5616639
2.2228711 -3.6545432 -1.5568756
2.2146015 -3.6639535 -1.5582438
2.2500823 -3.6290102 -1.5541395
2.2291431 -3.6419098 -1.5541395
2.269208 -3.6104245 -1.5520873
2.2608397 -3.6223185 -1.5541395
2.2892411 -3.5754597 -1.545247
2.2742589 -3.5961318 -1.5486672
2.312463 -3.5649662 -1.5466151
2.3376849 -3.5372195 -1.5431948
2.3294487 -3.5448983 -1.543879
2.3152192 -3.5474775 -1.5418268
2.3460882 -3.5271385 -1.5418268
2.3659906 -3.4684124 -1.528146
2.3736153 -3.501864 -1.5397747
2.3674138 -3.515126 -1.5425109
2.3960025 -3.4706104 -1.5349865
2.3911626 -3.4830687 -1.5377226
2.4218729 -3.4434204 -1.5322502
2.4025555 -3.4363077 -1.526094
2.3977103 -3.4511383 -1.5295141
2.4362147 -3.4217594 -1.5288301
2.4272485 -3.4281254 -1.5288301
2.4533324 -3.3816841 -1.5206215
2.4520805 -3.4011445 -1.526094
2.4468548 -3.4164705 -1.5295141
2.4594426 -3.3702657 -1.5185694
2.4969759 -3.3402064 -1.5178853
2.4738145 -3.3480542 -1.5151492
2.5059671 -3.3122807 -1.511729
2.5091352 -3.3357875 -1.5192535
2.5382173 -3.2947528 -1.5137811
2.5261459 -3.2992849 -1.5124131
2.5163453 -3.3067658 -1.5124131
2.5577242 -3.2796326 -1.5137811
2.5376198 -3.2738383 -1.5076247
2.5690169 -3.2564435 -1.5096768
2.5599132 -3.2636049 -1.5096768
2.5879216 -3.2221787 -1.5042046
2.58304 -3.235718 -1.5069407
2.6069968 -3.2067649 -1.5042046
2.5956686 -3.2111092 -1.5028365
2.6229906 -3.1717775 -1.4980482
2.621285 -3.1877997 -1.5021524
2.6565113 -3.1535912 -1.5007843
2.634794 -3.1668708 -1.4994164
2.6655512 -3.1286912 -1.495996
2.6616633 -3.1418588 -1.4987323
2.6890588 -3.1010516 -1.4939439
2.6749375 -3.103322 -1.4912078
2.6742778 -3.1212356 -1.495996
2.706336 -3.0859847 -1.4939439
2.6970124 -3.0916431 -1.4932599
2.7261875 -3.0533617 -1.4898398
2.7171159 -3.0614371 -1.4898398
2.7105069 -3.0723038 -1.4912078
2.7366984 -3.0287638 -1.4857355
2.7359588 -3.0471351 -1.4905238
2.7574129 -2.9997146 -1.4829994
2.7555802 -3.0166876 -1.4871035
2.7438815 -3.0197186 -1.4850514
2.7695248 -2.9782779 -1.4802631
2.7637491 -2.98876 -1.4816313
2.7910187 -2.950388 -1.478211
2.7899778 -2.966871 -1.4823153
2.8084774 -2.9337738 -1.478211
2.829531 -2.9056089 -1.4761589
2.8261261 -2.9193933 -1.4788952
2.8145628 -2.9227207 -1.476843
2.8369868 -2.8798921 -1.4713706
2.836319 -2.8963535 -1.4754748
2.8566802 -2.8656685 -1.4727387
2.8446972 -2.8696306 -1.4706866
2.8770683 -2.8371747 -1.4706866
2.8637965 -2.8399045 -1.4679505
2.8968089 -2.8062232 -1.4679505
2.8898158 -2.816117 -1.4686345
2.8894999 -2.8325727 -1.4727387
2.9056504 -2.7834997 -1.4645302
2.8951595 -2.7889955 -1.4631622
2.9284618 -2.7567492 -1.4638462
2.920752 -2.7649164 -1.4638462
2.9188557 -2.7805603 -1.4672664
2.9484184 -2.7436776 -1.4658984
2.9256506 -2.7377753 -1.4583739
2.9560771 -2.7021091 -1.4576898
2.9549639 -2.7172287 -1.4611101
2.9477923 -2.7277749 -1.461794
2.9669394 -2.6817763 -1.4556377
2.9622207 -2.6925797 -1.4570059
2.9902291 -2.6557832 -1.4556377
2.9744167 -2.6734805 -1.4556377
3.0009139 -2.6493871 -1.4570059
3.0159073 -2.6179938 -1.4535855
3.0137501 -2.6290615 -1.4556377
3.0276494 -2.5812912 -1.4481133
3.0256836 -2.5951569 -1.4508494
3.0582573 -2.5625463 -1.4522176
3.0477669 -2.5691864 -1.4508494
3.0545902 -2.5287731 -1.443325
3.0514061 -2.5414336 -1.4453771
3.0882056 -2.511507 -1.4487972
3.0433257 -2.4803073 -1.4289601
3.0504866 -2.5012426 -1.4358007
3.0410273 -2.5068295 -1.4344325
3.0496421 -2.4695516 -1.4282761
3.0726156 -2.4318345 -1.426224
3.0706503 -2.4433808 -1.4282761
3.0663216 -2.4548299 -1.4296442
3.0929143 -2.4181888 -1.4289601
3.081295 -2.4238694 -1.4269081
3.0930305 -2.3750818 -1.4193835
3.0904317 -2.3876956 -1.4214357
3.097528 -2.4061544 -1.427592
3.1122348 -2.3623149 -1.4221196
3.1086137 -2.3732779 -1.4234878
3.1350536 -2.3350952 -1.4228039
3.1236 -2.3410053 -1.4207517
3.1166401 -2.3502629 -1.4207517
3.139369 -2.3103161 -1.4186995
3.1351156 -2.3224049 -1.4200677
3.1639802 -2.2861345 -1.4207517
3.1598222 -2.2982738 -1.4221196
3.1862729 -2.274425 -1.4248559
3.1642466 -2.2729046 -1.4180156
3.1825233 -2.2309108 -1.4145952
3.1774254 -2.2414272 -1.4152793
3.184948 -2.2600801 -1.4214357
3.2034323 -2.2173345 -1.4180156
3.2129512 -2.1835194 -1.4139113
3.2126632 -2.1972866 -1.4166474
3.2061298 -2.206809 -1.4166474
3.2301555 -2.1681204 -1.4159634
3.228761 -2.1802876 -1.4180156
3.2348268 -2.1305459 -1.409807
3.2257309 -2.1374946 -1.4084389
3.2338231 -2.1558769 -1.4145952
3.2438927 -2.1098299 -1.4084389
3.2376187 -2.1194453 -1.4084389
3.2517176 -2.1012158 -1.4091231
0.71894199 -4.5036049 -1.7808664
0.74108559 -4.4716902 -1.7699541
0.73230213 -4.501452 -1.7808664
0.7781558 -4.4540415 -1.7655892
0.76666093 -4.4617052 -1.7677716
0.75449914 -4.4751148 -1.7721366
0.78733307 -4.4335079 -1.7583145
0.83738697 -4.4148469 -1.7546772
0.82496732 -4.4209743 -1.756132
0.81174624 -4.4272094 -1.757587
0.86167359 -4.4082723 -1.7539495
0.84977692 -4.4086838 -1.7532221
0.89975607 -4.3949528 -1.7517673
0.88557678 -4.3959312 -1.7510396
0.92198145 -4.375114 -1.7459474
0.90823835 -4.3741817 -1.7444923
0.94166958 -4.3480468 -1.7372175
0.98074543 -4.34131 -1.7379451
0.96786046 -4.3442006 -1.7379451
1.0156084 -4.3198915 -1.7328528
1.0036283 -4.3265147 -1.7343076
0.99195814 -4.3311172 -1.7350353
1.0400354 -4.3121586 -1.7321252
1.0255105 -4.3079767 -1.7292154
1.0706998 -4.2816072 -1.7233956
1.045887 -4.2839003 -1.7219405
1.0963714 -4.2731814 -1.7226679
1.0824845 -4.2747989 -1.7219405
1.1295271 -4.2510457 -1.7175757
1.1167051 -4.2505798 -1.7161208
1.1071727 -4.2626972 -1.7197582
1.1495936 -4.2282896 -1.7110283
1.1389766 -4.2388792 -1.7139384
1.1846603 -4.2089233 -1.707391
1.174165 -4.2195988 -1.7103009
1.160652 -4.2194715 -1.7088461
1.1936377 -4.1986394 -1.7044811
1.2428522 -4.1823912 -1.7037536
1.2265562 -4.1755509 -1.6993889
1.2167608 -4.1881166 -1.7030262
1.2607851 -4.1575565 -1.6964787
1.2484437 -4.1612792 -1.6964787
1.2814047 -4.1395483 -1.692114
1.2703856 -4.1448917 -1.6928415
1.3153664 -4.1191049 -1.6884766
1.3042617 -4.1265421 -1.6899316
1.2938467 -4.1337242 -1.6913865
1.3366208 -4.10638 -1.6862941
1.3251492 -4.110096 -1.6862941
1.3702782 -4.0834827 -1.6819292
1.3489329 -4.1003909 -1.6855667
1.3900502 -4.0669518 -1.6782919
1.3804803 -4.0761113 -1.6804744
1.4230163 -4.0476365 -1.675382
1.4102932 -4.0520868 -1.675382
1.4543442 -4.0285635 -1.672472
1.4437932 -4.0323567 -1.672472
1.4311997 -4.0348678 -1.6717446
1.47764 -4.0161076 -1.6710172
1.4631028 -4.0154786 -1.6688347
1.4830157 -3.9962461 -1.6644698
1.5242726 -3.9667249 -1.6593775
1.5158427 -3.9779296 -1.6622874
1.5053868 -3.9838893 -1.6630148
1.5464269 -3.9541399 -1.6579225
1.5373816 -3.9656587 -1.6608323
1.578106 -3.9355829 -1.65574
1.565734 -3.9385166 -1.6550126
1.5828065 -3.9156156 -1.6491928
1.6270487 -3.8934016 -1.6477379
1.606696 -3.9058738 -1.6491928
1.6335292 -3.8765395 -1.6426455
1.6757742 -3.8503397 -1.6397356
1.6702491 -3.8689785 -1.6455554
1.6521627 -3.8585036 -1.639008
1.6934869 -3.8324003 -1.6360981
1.6842744 -3.8405266 -1.6375532
1.7252276 -3.8120828 -1.6339157
1.7146727 -3.8188844 -1.6346433
1.70494 -3.8293583 -1.6368256
1.7410482 -3.7905374 -1.6288234
1.7327751 -3.8004696 -1.6310058
1.7590432 -3.7739999 -1.6259135
1.749157 -3.7785921 -1.6259135
1.7900128 -3.7511544 -1.6230036
1.7835186 -3.7645569 -1.6266409
1.8068767 -3.7327144 -1.6193662
1.7972528 -3.7394247 -1.6200936
1.8327708 -3.7034466 -1.6135464
1.8273518 -3.7185824 -1.6179113
1.8517549 -3.6898227 -1.6120914
1.8427336 -3.6943364 -1.6120914
1.8777213 -3.6599333 -1.6062716
1.870236 -3.6721289 -1.6091815
1.8994067 -3.6487265 -1.6062716
1.9235467 -3.6191883 -1.6004517
1.9145386 -3.6281753 -1.6019068
1.9494623 -3.5904629 -1.5953593
1.9432212 -3.6044304 -1.5989969
1.9325179 -3.6101804 -1.5989969
1.9588557 -3.5853467 -1.5953593
1.9997342 -3.5605717 -1.5946319
1.9791939 -3.5720298 -1.5946319
2.0149825 -3.5412512 -1.5909945
2.0069191 -3.550108 -1.5924495
2.0426805 -3.5167317 -1.5880846
2.0177596 -3.5203567 -1.5844473
2.058176 -3.4968808 -1.5844473
2.0484033 -3.5026147 -1.5844473
2.0847778 -3.4723978 -1.5815372
2.0729051 -3.47733 -1.5808098
2.1037748 -3.4587412 -1.5808098
2.0941079 -3.4646025 -1.5808098
2.1177969 -3.4370506 -1.576445
2.1075895 -3.4433191 -1.576445
2.1413665 -3.4070225 -1.5713526
2.1385443 -3.4263768 -1.5771725
2.1688294 -3.3873944 -1.5706252
2.1563606 -3.3887229 -1.5684427
2.1498766 -3.3994546 -1.5706252
2.1858504 -3.3697762 -1.5684427
2.1732354 -3.3734941 -1.5669878
2.2053444 -3.3369713 -1.5618954
2.2027392 -3.3520749 -1.5662602
2.1871064 -3.3511779 -1.5626228
2.2234914 -3.3226657 -1.561168
2.2142038 -3.328862 -1.561168
2.2487793 -3.2965868 -1.5582581
2.2379427 -3.301702 -1.5575305
2.2302179 -3.3114181 -1.5589855
2.2671556 -3.2839758 -1.5582581
2.253278 -3.2822201 -1.5546206
2.2791305 -3.2597764 -1.5531656
2.2715743 -3.2695847 -1.5546206
2.291975 -3.237072 -1.5488008
2.3247344 -3.2044239 -1.5458908
2.3094554 -3.2246239 -1.5488008
2.3392878 -3.1868851 -1.5437086
2.33587 -3.2009294 -1.5473459
2.3625472 -3.1603811 -1.5407984
2.3581607 -3.175266 -1.544436
2.3470738 -3.1765234 -1.5422535
2.3795862 -3.1452358 -1.540071
2.3719137 -3.1533575 -1.5407984
2.398984 -3.1140199 -1.5349787
2.3965297 -3.1299992 -1.5393436
2.3815908 -3.129683 -1.5357062
2.4082131 -3.1068881 -1.5349787
2.4415245 -3.0760233 -1.5335237
2.4335413 -3.0847168 -1.5342513
2.4260674 -3.0929663 -1.5349787
2.4568675 -3.0590055 -1.5320688
2.4752138 -3.027353 -1.5269766
2.4632246 -3.0299165 -1.5247941
2.4570961 -3.0396807 -1.5262489
2.4861467 -3.0063031 -1.523339
2.5015509 -2.9886401 -1.5218841
2.5227034 -2.9610238 -1.5189742
2.5192418 -2.973743 -1.5218841
2.5423446 -2.931859 -1.5153369
2.5409322 -2.9478559 -1.5197016
2.5333869 -2.9567971 -1.5204291
2.5525372 -2.9106109 -1.5116994
2.5547063 -2.9285145 -1.5175194
2.5758624 -2.8849959 -1.5102445
2.5697641 -2.8954127 -1.5116994
2.5648596 -2.9072154 -1.5138818
2.5966837 -2.8738065 -1.5124269
2.5876427 -2.8819499 -1.5124269
2.6059122 -2.8528378 -1.5087895
2.6182311 -2.8313947 -1.5058796
2.6476223 -2.7988033 -1.5044246
2.6405828 -2.8080039 -1.505152
2.6314585 -2.8140061 -1.5044246
2.6603191 -2.7790055 -1.5022422
2.6533463 -2.7882361 -1.5029696
2.6787891 -2.7508142 -1.4993323
2.6809814 -2.7694585 -1.505152
2.6932807 -2.7340128 -1.4986049
2.6864603 -2.7433228 -1.4993323
2.7143984 -2.7077739 -1.4971498
2.7094572 -2.7179823 -1.4986049
2.6952984 -2.7189224 -1.4949673
2.7259696 -2.6881709 -1.4949673
2.719775 -2.6970847 -1.4956949
2.7457747 -2.6599119 -1.492785
2.7352023 -2.6654465 -1.4913301
2.7339332 -2.6800711 -1.4949673
2.7578971 -2.6419578 -1.4913301
2.7437999 -2.6431863 -1.4876926
2.7754211 -2.6126821 -1.48842
2.7585194 -2.6278207 -1.4876926
2.7945147 -2.600461 -1.4906025
2.8051751 -2.5641716 -1.4840553
2.7921939 -2.5837901 -1.4855102
2.8095675 -2.553822 -1.4826003
2.8374054 -2.520052 -1.4818729
2.8336415 -2.5326781 -1.4840553
2.8210154 -2.5355995 -1.4811453
2.8574729 -2.5085845 -1.4847827
2.8448701 -2.5116222 -1.4818729
2.8707912 -2.4762521 -1.4804178
2.8587768 -2.4815946 -1.4782354
2.8541083 -2.4897974 -1.4789628
2.8722458 -2.4487984 -1.4738705
2.8677962 -2.4597354 -1.4753255
2.8916554 -2.4229488 -1.4731431
2.8844538 -2.4315178 -1.4731431
2.8851848 -2.4450836 -1.4767805
2.894537 -2.4107816 -1.4709606
2.9254203 -2.3791206 -1.4724157
2.921232 -2.3901494 -1.4738705
2.914546 -2.3982978 -1.4738705
2.8940446 -2.3586435 -1.4578661
2.891356 -2.3707638 -1.4600486
2.8865764 -2.3795102 -1.460776
2.9050877 -2.3390915 -1.4564111
2.9014401 -2.34954 -1.4578661
2.9245815 -2.3146722 -1.4564111
2.9185116 -2.3223209 -1.4564111
2.9255795 -2.3013773 -1.4535012
2.9449022 -2.2613368 -1.4498638
2.944077 -2.2746205 -1.4527737
2.9439969 -2.2868917 -1.4556837
2.9604537 -2.2471068 -1.4513187
2.9777374 -2.2179208 -1.4498638
2.9570863 -2.229943 -1.4462264
2.9874616 -2.1985247 -1.4484088
3.0110633 -2.1756444 -1.4505912
2.9996936 -2.1818054 -1.4484088
2.9950929 -2.1912739 -1.4491363
3.0129299 -2.1506891 -1.4454989
3.0035093 -2.1574457 -1.444044
3.0251102 -2.1205664 -1.4425889
3.0157604 -2.1273851 -1.441134
3.0082886 -2.1347203 -1.4404066
0.81922847 -4.1911254 -1.7837375
0.84798747 -4.1420836 -1.766008
0.83351314 -4.1374912 -1.7629247
0.82626885 -4.1615238 -1.7721747
0.86878616 -4.1226845 -1.7598412
0.85767543 -4.1306648 -1.7621537
0.90274823 -4.1059341 -1.755987
0.89101624 -4.114161 -1.7582996
0.92394155 -4.0898657 -1.751362
0.91180295 -4.0925889 -1.751362
0.95664066 -4.0690718 -1.7459661
0.94623113 -4.0790834 -1.7490494
0.97746462 -4.0527301 -1.7413409
0.96757233 -4.064589 -1.7451953
1.0100383 -4.0390282 -1.7390283
1.0010529 -4.0450668 -1.7405701
0.98965341 -4.0535703 -1.7428827
1.0314819 -4.0202699 -1.7336324
1.020206 -4.0288572 -1.735945
1.0629822 -4.0005999 -1.7290074
1.0560268 -4.0196171 -1.735945
1.0443342 -4.0207639 -1.7351742
1.0845538 -3.9890687 -1.7266948
1.0751076 -4.0011806 -1.7305491
1.1165174 -3.9668217 -1.7212989
1.1082063 -3.9825625 -1.7266948
1.1381451 -3.9587505 -1.7205281
1.1279085 -3.9674356 -1.7228407
1.157286 -3.9397354 -1.7151322
1.1471363 -3.9484682 -1.7174448
1.1889446 -3.9206555 -1.7112778
1.1788974 -3.9294691 -1.7135905
1.2087775 -3.904928 -1.7074238
1.2048985 -3.9312267 -1.7174448
1.2367507 -3.8729179 -1.6981735
1.2302594 -3.8924072 -1.7051113
1.2204881 -3.8993497 -1.7066528
1.2617886 -3.8764796 -1.7027986
1.2509593 -3.8799877 -1.7027986
1.2904605 -3.8456225 -1.6943194
1.271654 -3.8654842 -1.6997153
1.317151 -3.8209498 -1.6881526
1.3154991 -3.8488331 -1.6989443
1.3047457 -3.8524916 -1.6989443
1.340467 -3.8128326 -1.6881526
1.3296952 -3.8205111 -1.6896943
1.3698547 -3.7945259 -1.6850692
1.3605387 -3.7998362 -1.68584
1.3535767 -3.8160312 -1.6912359
1.3917344 -3.7826228 -1.6835275
1.3823718 -3.7939129 -1.6866109
1.4128388 -3.7747908 -1.6835275
1.4029341 -3.7804523 -1.6842984
1.4377828 -3.7416463 -1.6742774
1.4299567 -3.7525444 -1.6773608
1.4214293 -3.7617021 -1.6796733
1.4690518 -3.7274964 -1.6735064
1.4613043 -3.7364855 -1.675819
1.4495449 -3.7390845 -1.6750482
1.4925185 -3.7221394 -1.6750482
1.4773778 -3.7162616 -1.670423
1.5118415 -3.7083547 -1.6727357
1.4966823 -3.7025578 -1.6681105
1.5384526 -3.6813982 -1.666569
1.5260459 -3.6805654 -1.6642565
1.5206761 -3.6967597 -1.6696523
1.5552195 -3.6603143 -1.6611731
1.5450687 -3.6666133 -1.6619438
1.5863659 -3.6449106 -1.6604021
1.5755435 -3.6496017 -1.6604021
1.563982 -3.6525638 -1.6596313
1.6014763 -3.6241782 -1.6550062
1.5935727 -3.6337063 -1.6573187
1.6313889 -3.6047356 -1.6526936
1.6199306 -3.6078768 -1.6519228
1.608588 -3.6129482 -1.6519228
1.6337931 -3.583374 -1.6449852
1.6757457 -3.5659871 -1.645756
1.6660943 -3.5745795 -1.6472977
1.658281 -3.5822785 -1.6488395
1.6929036 -3.5476522 -1.6419019
1.6853603 -3.5573697 -1.6442144
1.7217561 -3.531687 -1.641131
1.7030421 -3.518209 -1.6326516
1.6996062 -3.536258 -1.6388185
1.7385901 -3.5131373 -1.6372768
1.7238895 -3.5080409 -1.6326516
1.764184 -3.4879508 -1.6326516
1.7573564 -3.5017233 -1.636506
1.7455001 -3.4994013 -1.6334226
1.783401 -3.4760904 -1.6318809
1.7722422 -3.479722 -1.6311101
1.8082725 -3.4486375 -1.626485
1.7971801 -3.4523509 -1.6257142
1.7911654 -3.4658649 -1.6295682
1.8223083 -3.4287064 -1.6218598
1.8147109 -3.4389951 -1.6241723
1.8527551 -3.4123504 -1.6218598
1.8443741 -3.4210818 -1.6234016
1.8581433 -3.40101 -1.6187764
1.8950742 -3.3742225 -1.6164639
1.8865436 -3.3811128 -1.6172347
1.875609 -3.3850808 -1.6164639
1.9102395 -3.3571694 -1.6133806
1.9026731 -3.3657038 -1.6149222
1.9400461 -3.3400335 -1.6133806
1.9301273 -3.3457751 -1.6133806
1.9134349 -3.3383427 -1.6072137
1.9517616 -3.3160806 -1.6072137
1.9406309 -3.3183322 -1.6056721
1.9758761 -3.2910113 -1.6033596
1.9693072 -3.3035429 -1.6064429
1.9837226 -3.2819753 -1.6018178
2.01402 -3.2482808 -1.596422
2.0030046 -3.2507501 -1.5948801
2.0020216 -3.2708452 -1.6018178
2.028914 -3.2281048 -1.5925676
2.0236487 -3.242291 -1.596422
2.0459206 -3.2151661 -1.5917968
2.0389073 -3.2239864 -1.5933386
2.0678742 -3.1879001 -1.5871717
2.0648448 -3.2052405 -1.5925676
2.0909915 -3.1639407 -1.5840883
2.0867553 -3.1755731 -1.5871717
2.0797944 -3.1867497 -1.5894842
2.1102061 -3.1533785 -1.5848591
2.1288314 -3.1207497 -1.5779216
2.1247396 -3.1346905 -1.5817758
2.1420336 -3.1027365 -1.5748382
2.1412148 -3.118984 -1.5802342
2.1690283 -3.083926 -1.5748382
2.160408 -3.0899708 -1.5748382
2.153336 -3.0993986 -1.5763799
2.185684 -3.0698791 -1.5740674
2.1797724 -3.0786026 -1.5756091
2.1984661 -3.0493698 -1.5702132
2.1888754 -3.0562615 -1.5702132
2.2200956 -3.0245061 -1.5671297
2.2138166 -3.0336754 -1.5686715
2.2452998 -3.0035391 -1.5663589
2.236953 -3.0120597 -1.5671297
2.2536538 -2.9787836 -1.5601922
2.2486546 -2.98949 -1.5625048
2.2818148 -2.9619274 -1.5617338
2.265316 -2.9768846 -1.5625048
2.2936766 -2.9410586 -1.5578797
2.2849405 -2.9478509 -1.5578797
2.3084185 -2.9083261 -1.5509419
2.3043513 -2.9209578 -1.5540253
2.2961855 -2.9273815 -1.5540253
2.3297534 -2.9007378 -1.5540253
2.3176825 -2.9033105 -1.5517128
2.3479691 -2.8717244 -1.5494002
2.3399408 -2.8782697 -1.5494002
2.3330543 -2.8862283 -1.5501713
2.3580909 -2.8514552 -1.5455461
2.3791165 -2.824291 -1.5424627
2.3808925 -2.8444877 -1.5494002
2.3948534 -2.8109596 -1.5424627
2.4132466 -2.7829821 -1.5386084
2.4085934 -2.7943237 -1.540921
2.4348361 -2.7763987 -1.5424627
2.44962 -2.7436028 -1.536296
2.4488187 -2.7591405 -1.540921
2.4381795 -2.7636261 -1.5393794
2.4621458 -2.7249103 -1.5339835
2.4841099 -2.7023959 -1.5332125
2.4743631 -2.7088237 -1.5324416
2.4697454 -2.718024 -1.5339835
2.4920931 -2.6799347 -1.5285875
2.511116 -2.6545026 -1.5262749
2.5108144 -2.6700077 -1.5309
2.5332046 -2.64622 -1.5301292
2.5189812 -2.6470401 -1.5262749
2.5428674 -2.6112378 -1.5224208
2.5338247 -2.6174455 -1.5216498
2.5359247 -2.6333749 -1.5270457
2.5604548 -2.5991781 -1.5239624
2.5751998 -2.5689151 -1.5193373
2.5680163 -2.5760963 -1.5193373
2.5647101 -2.5871897 -1.5216498
2.5873251 -2.5514488 -1.5177957
2.6112585 -2.5296023 -1.5185665
2.6010981 -2.5347624 -1.5170248
2.6014731 -2.5502207 -1.5216498
2.6146846 -2.5047657 -1.5123998
2.6169834 -2.5210199 -1.5177957
2.6189964 -2.4949081 -1.5108579
2.6412365 -2.4578266 -1.5070038
2.6451426 -2.4752805 -1.5131705
2.6698198 -2.4404449 -1.5108579
2.6680009 -2.4533525 -1.5139414
2.6697171 -2.413121 -1.5031495
2.6697962 -2.4267735 -1.5070038
2.7030923 -2.4007614 -1.5100871
2.6872807 -2.4018624 -1.5054621
2.6915433 -2.4192269 -1.5116289
2.7085536 -2.3778477 -1.5054621
2.7005196 -2.3841808 -1.5046912
2.7180214 -2.3444779 -1.4992954
2.7090569 -2.3632607 -1.5016079
2.7370965 -2.3335738 -1.5023787
2.7315617 -2.3428857 -1.5031495
2.7512953 -2.3053393 -1.4992954
2.7402101 -2.3099244 -1.4969828
2.7649269 -2.2889724 -1.4992954
2.7538691 -2.293623 -1.4969828
2.7776375 -2.258935 -1.4954411
2.7694945 -2.2659981 -1.4946703
2.766006 -2.2760684 -1.496212
2.74809 -2.2396905 -1.480795
2.7471411 -2.2525148 -1.4838784
2.7398105 -2.2585256 -1.4831076
2.7670817 -2.2279732 -1.4838784
2.7637177 -2.2380145 -1.4854201
2.7769799 -2.2097011 -1.4823368
2.771852 -2.2190843 -1.4831076
2.7986834 -2.1881449 -1.4838784
2.7849264 -2.1907339 -1.4800242
2.7995567 -2.1629629 -1.4777116
2.7982566 -2.173681 -1.4800242
2.8090341 -2.1445632 -1.4761699
2.8172903 -2.1245227 -1.4738574
0.87487644 -3.8726766 -1.7676775
0.86417705 -3.8788221 -1.7693045
0.9048751 -3.848887 -1.7603562
0.89468962 -3.8568945 -1.7627966
0.88554698 -3.8665016 -1.7660505
0.91392708 -3.8392355 -1.7571024
0.95387572 -3.8144407 -1.7505946
0.94455254 -3.8167598 -1.7505946
0.93342412 -3.8232582 -1.7522215
0.97761291 -3.8103123 -1.7514081
1.0078171 -3.7929828 -1.7473406
0.99536449 -3.7887142 -1.7440867
0.98294348 -3.7844052 -1.7408329
1.0146123 -3.7760382 -1.7408329
1.0568795 -3.7549367 -1.7367655
1.0467136 -3.7615767 -1.7383925
1.0326408 -3.7540956 -1.7335116
1.0758152 -3.7419517 -1.7335116
1.1049166 -3.7182164 -1.7270039
1.0942596 -3.7251754 -1.7286308
1.1230146 -3.7032449 -1.7229364
1.1151719 -3.7170613 -1.7278173
1.144325 -3.6967154 -1.7229364
1.1323909 -3.6946561 -1.7204961
1.1727378 -3.6724596 -1.7164288
1.1667917 -3.6916025 -1.72375
1.1532043 -3.6843843 -1.7188692
1.1926644 -3.6641154 -1.7156153
1.181307 -3.6639535 -1.7139883
1.2183136 -3.6306221 -1.7050402
1.211508 -3.6483033 -1.7115479
1.2053117 -3.6638215 -1.7172421
1.2486497 -3.6222332 -1.7058536
1.2415259 -3.6324055 -1.7091074
1.2331356 -3.6410501 -1.7115479
1.2701472 -3.6128147 -1.7050402
1.3016092 -3.6054842 -1.7066669
1.2790095 -3.6058097 -1.7034131
1.3173009 -3.5803187 -1.6985322
1.3079234 -3.5895896 -1.7009727
1.3308722 -3.555794 -1.6903975
1.3247511 -3.5697744 -1.6952784
1.3552021 -3.5563707 -1.694465
1.3914403 -3.5305691 -1.6895841
1.3841887 -3.5393043 -1.6920246
1.3723606 -3.5399885 -1.6903975
1.404886 -3.5035956 -1.6806358
1.3965095 -3.5128419 -1.6830763
1.4236624 -3.4920623 -1.679009
1.4146646 -3.4996586 -1.6806358
1.4491506 -3.4677052 -1.6733147
1.4471591 -3.4903035 -1.6822628
1.4290655 -3.4740546 -1.6725011
1.4704171 -3.460726 -1.6741281
1.4947286 -3.4343603 -1.6676204
1.4757603 -3.4465289 -1.6692473
1.5124089 -3.4226165 -1.6659933
1.5035788 -3.4284997 -1.6668068
1.5435669 -3.4106832 -1.6668068
1.5349375 -3.4185817 -1.6684338
1.5587788 -3.3937078 -1.6627395
1.5508116 -3.401372 -1.6643664
1.5844491 -3.3717077 -1.6586721
1.5730772 -3.3750126 -1.6578586
1.5650036 -3.3807771 -1.6586721
1.6060033 -3.3655438 -1.6602991
1.5903403 -3.356806 -1.6537912
1.6237332 -3.3306212 -1.6497239
1.6152221 -3.336787 -1.6505374
1.6130209 -3.3561056 -1.6578586
1.6434687 -3.3209271 -1.6497239
1.6325771 -3.3222239 -1.6480969
1.6674386 -3.2966766 -1.644843
1.649816 -3.3075728 -1.6456565
1.685564 -3.2853928 -1.6440296
1.6733212 -3.2854953 -1.6415892
1.70965 -3.2605503 -1.6391487
1.6974373 -3.2607467 -1.6367083
1.6902717 -3.270638 -1.6391487
1.7201164 -3.2364304 -1.6318275
1.7549584 -3.2322314 -1.6375217
1.7401584 -3.2277749 -1.6326411
1.7262622 -3.2248695 -1.6285735
1.767138 -3.2130833 -1.6326411
1.7537785 -3.2099884 -1.6285735
1.7894046 -3.1860752 -1.6269466
1.7831713 -3.1958463 -1.629387
1.7772236 -3.2075157 -1.6326411
1.8026536 -3.1680915 -1.6228793
1.7937994 -3.1731131 -1.6228793
1.8289461 -3.148761 -1.6212524
1.8241601 -3.1620867 -1.6253197
1.8442703 -3.133451 -1.618812
1.837358 -3.1417432 -1.6204388
1.872485 -3.1188037 -1.6196253
1.8636137 -3.1262405 -1.6204388
1.8558074 -3.1330047 -1.6212524
1.8913666 -3.1095285 -1.6204388
1.8741696 -3.1007249 -1.6131176
1.9130764 -3.0854754 -1.6163715
1.9034939 -3.0892503 -1.615558
1.8876426 -3.0839763 -1.6098638
1.9241102 -3.0613565 -1.6098638
1.9164181 -3.0704858 -1.6114906
1.9427929 -3.0343585 -1.6041694
1.9352924 -3.0413136 -1.6049829
1.9287454 -3.0497947 -1.6066098
1.9607646 -3.0227766 -1.6041694
1.9736508 -3.0034537 -1.6001021
1.9926461 -2.9777031 -1.5952212
1.9863467 -2.9862986 -1.5968481
2.0180423 -2.958339 -1.5944077
2.0092556 -2.9643135 -1.5944077
2.0055549 -2.9778395 -1.5984751
2.0345333 -2.947022 -1.5944077
2.060173 -2.9291553 -1.5944077
2.043268 -2.9409726 -1.5944077
2.0706513 -2.9083111 -1.5895269
2.064086 -2.9152129 -1.5903403
2.0943108 -2.8868067 -1.5878999
2.0755732 -2.8980608 -1.5870864
2.1093194 -2.8735921 -1.5870864
2.0991328 -2.8765197 -1.5854595
2.1277521 -2.8462954 -1.5822055
2.126425 -2.8632338 -1.5878999
2.1139936 -2.8610737 -1.5838326
2.133991 -2.8370495 -1.5805787
2.1537328 -2.8128929 -1.5773247
2.1464834 -2.820725 -1.5781382
2.1696961 -2.7820852 -1.570817
2.1692674 -2.7986188 -1.5765113
2.1888654 -2.7577038 -1.5675631
2.186332 -2.7713583 -1.5716305
2.1887331 -2.7903914 -1.5789517
2.2092888 -2.7507493 -1.570817
2.2239571 -2.7200494 -1.5643092
2.2278783 -2.7404261 -1.572444
2.2179196 -2.7437949 -1.570817
2.2414429 -2.7104018 -1.5659361
2.238507 -2.7222955 -1.56919
2.2635949 -2.6871531 -1.5643092
2.2551417 -2.6942513 -1.5643092
2.2483065 -2.7023351 -1.5651227
2.2738278 -2.668906 -1.5610553
2.2946374 -2.6462007 -1.5594283
2.2891619 -2.6557653 -1.5610553
2.2824607 -2.6639333 -1.5618688
2.3021526 -2.625102 -1.5545475
2.322994 -2.6017802 -1.5529206
2.3249664 -2.6195934 -1.5594283
2.3075137 -2.6155193 -1.5529206
2.3420672 -2.5920167 -1.5553609
2.3554928 -2.5624769 -1.5496666
2.3394663 -2.5746484 -1.5488532
2.3714569 -2.5502057 -1.5504802
2.366807 -2.5595007 -1.5521071
2.3869014 -2.5231953 -1.5464128
2.3819079 -2.5329282 -1.5480398
2.3785691 -2.5435734 -1.5504802
2.3943775 -2.5161018 -1.5464128
2.4206519 -2.4857364 -1.5447859
2.4132659 -2.4929078 -1.5447859
2.4143355 -2.5071135 -1.5496666
2.4259529 -2.462642 -1.5390915
2.4250271 -2.476356 -1.5431589
2.4576991 -2.4517009 -1.5455993
2.4495533 -2.4572608 -1.5447859
2.4323912 -2.4537108 -1.538278
2.4691772 -2.4349394 -1.5439724
2.4571786 -2.4366789 -1.5407184
2.4815664 -2.4039657 -1.538278
2.4744229 -2.4113178 -1.538278
2.4685624 -2.4199283 -1.5390915
2.4909961 -2.386277 -1.5358377
2.4856386 -2.3944914 -1.5366511
2.5117254 -2.3644483 -1.5358377
2.493171 -2.3601487 -1.5285164
2.4976501 -2.3793113 -1.5358377
2.5226266 -2.3474534 -1.5342107
2.5120592 -2.3507435 -1.5317703
2.5339816 -2.3162773 -1.5285164
2.5351675 -2.3312058 -1.5333972
2.52649 -2.3379178 -1.5325837
2.5455229 -2.3008637 -1.5277029
2.5545759 -2.268856 -1.5211952
2.5478616 -2.290082 -1.5252625
2.568974 -2.2553105 -1.5220085
2.5871739 -2.2316132 -1.5211952
2.5925682 -2.2505093 -1.5285164
2.5815542 -2.252033 -1.5252625
2.5985937 -2.2154901 -1.5203817
2.5947826 -2.225569 -1.5220085
2.6076424 -2.1849713 -1.5146873
2.6109269 -2.200942 -1.5203817
2.6009741 -2.204226 -1.5179412
2.6275995 -2.1752844 -1.5187547
2.6372561 -2.1578007 -1.5171278
2.6138024 -2.1431839 -1.5049257
2.611002 -2.152344 -1.5065526
0.92007494 -3.5860543 -1.7523967
0.949781 -3.5745602 -1.7506853
0.94392955 -3.5929344 -1.7583863
0.9366194 -3.6060543 -1.7635204
0.96750778 -3.5585647 -1.7455515
0.95647573 -3.5596738 -1.7446957
0.99571568 -3.5376308 -1.7395617
0.98618448 -3.5440528 -1.741273
0.97997987 -3.5626502 -1.7489741
1.0034912 -3.5297959 -1.7369949
1.0432521 -3.5107062 -1.733572
1.0347651 -3.5226388 -1.7378504
1.0238045 -3.5239575 -1.7369949
1.0493226 -3.4975741 -1.728438
1.0808737 -3.4917376 -1.7301494
1.0705889 -3.4930143 -1.7292938
1.1080617 -3.4699244 -1.7241598
1.097761 -3.4731967 -1.7241598
1.1268641 -3.4619629 -1.7233043
1.1530616 -3.4361689 -1.7156032
1.1360399 -3.453254 -1.7207372
1.1806206 -3.4248857 -1.7147477
1.1722344 -3.4296756 -1.7156032
1.2015197 -3.4176102 -1.7147477
1.193748 -3.4299042 -1.7190259
1.2233559 -3.388721 -1.7053353
1.2193557 -3.4055271 -1.7121806
1.2080369 -3.4057226 -1.7104692
1.2459065 -3.3862741 -1.7079022
1.232168 -3.3816791 -1.7036239
1.2603638 -3.3674116 -1.7019126
1.2890534 -3.3545973 -1.7010568
1.2777494 -3.3531165 -1.69849
1.2683809 -3.3566716 -1.69849
1.3123922 -3.3299966 -1.6942117
1.3089368 -3.346889 -1.7010568
1.3328019 -3.3238277 -1.6950673
1.3457817 -3.3010309 -1.6873664
1.3724461 -3.2841573 -1.6847993
1.3540826 -3.2917712 -1.6847993
1.3904966 -3.2726276 -1.6830881
1.384992 -3.2867341 -1.6882219
1.4168384 -3.2553961 -1.680521
1.4107549 -3.2678843 -1.6847993
1.4259231 -3.2514272 -1.680521
1.4593738 -3.2246494 -1.675387
1.4490596 -3.2273161 -1.6745315
1.4411191 -3.2368069 -1.6770984
1.4728339 -3.2065923 -1.6702532
1.4691234 -3.2222061 -1.6762427
1.4984535 -3.1887093 -1.6676861
1.4945383 -3.2065086 -1.6745315
1.4793041 -3.195646 -1.6668304
1.5142354 -3.1732347 -1.6642634
1.5415581 -3.1620629 -1.6651192
1.5215245 -3.1657355 -1.6625521
1.5594931 -3.1512394 -1.6642634
1.5828538 -3.1294446 -1.6599851
1.5730144 -3.1344018 -1.6599851
1.565351 -3.138236 -1.6599851
1.5934249 -3.1058011 -1.6522841
1.5891253 -3.1201799 -1.6574181
1.6184884 -3.0866916 -1.6497172
1.6101575 -3.0930841 -1.6505729
1.6373992 -3.0807965 -1.6514285
1.6638941 -3.0645118 -1.6505729
1.6505051 -3.0614791 -1.6462946
1.6649778 -3.0474539 -1.6437275
1.7040396 -3.034081 -1.6471502
1.6830322 -3.0375199 -1.6437275
1.7164887 -3.0166602 -1.6428719
1.705389 -3.016721 -1.6403049
1.7396402 -2.9950099 -1.6394492
1.7325526 -3.0032899 -1.6411606
1.7531931 -2.978709 -1.6360266
1.7476063 -2.9882746 -1.6385936
1.7744681 -2.9555471 -1.6317483
1.7670256 -2.9642124 -1.6334596
1.7624263 -2.9753571 -1.6368823
1.7895826 -2.942189 -1.630037
1.7804242 -2.9456277 -1.6291813
1.8137263 -2.92524 -1.6291813
1.8046019 -2.928755 -1.6283257
1.7959042 -2.9340966 -1.6283257
1.8156976 -2.9091115 -1.6231916
1.845188 -2.8819139 -1.6197691
1.8351916 -2.8840053 -1.6180576
1.8329284 -2.8982856 -1.6231916
1.8817574 -2.8473423 -1.6154907
1.8782675 -2.8583016 -1.6189133
1.8722426 -2.8687301 -1.6214803
